# .PCD v0.7 - Point Cloud Data file format
VERSION 0.7
FIELDS x y z
SIZE 4 4 4
TYPE F F F
COUNT 1 1 1
WIDTH 1649
HEIGHT 1
VIEWPOINT 0 0 0 1 0 0 0
POINTS 1649
DATA ascii
0.014071856 0.0071974345 0
24.347502 -12.433631 -2.035713
17.532007 -8.9452543 -1.9566845
13.307681 -6.7864347 -1.8489151
10.901547 -5.5567927 -1.8164029
9.2327099 -4.7019148 -1.7936414
8.045907 -4.0974326 -1.7859849
7.1489635 -3.637486 -1.7835287
6.4436388 -3.2757759 -1.7865759
5.8369522 -2.9659989 -1.7800174
5.3578668 -2.7225497 -1.7797468
0.014076888 0.0071876189 0
4.5760493 -2.3221762 -1.7747422
4.2492723 -2.1534626 -1.7634604
3.9692371 -2.0123351 -1.7573878
0.014029982 0.0072787609 0
0.014029981 0.007278759 0
0.014028708 0.0072812061 0
0.014028708 0.0072812047 0
0.014026163 0.0072861002 0
0.014026162 0.0072860988 0
0.014027433 0.0072836494 0
0.014027432 0.007283648 0
0.014026159 0.0072860955 0
0.014026158 0.0072860946 0
0.0140287 0.0072811972 0
0.014026157 0.0072860932 0
0.014026157 0.0072860927 0
0.014027428 0.0072836443 0
0.014028698 0.0072811958 0
0.014029969 0.0072787469 0
46.848969 -24.291042 -1.3447843
0.014027428 0.0072836443 0
24.282169 -12.58859 -2.0366788
17.466103 -9.0469885 -1.9554968
13.26394 -6.8668747 -1.8486693
10.852232 -5.6156621 -1.8139049
9.2158432 -4.7646551 -1.7960316
8.0187845 -4.145648 -1.7855964
7.107358 -3.6712241 -1.7787483
6.3742061 -3.2896152 -1.7728829
5.8296914 -3.0073578 -1.7834325
5.3528876 -2.7613802 -1.7837276
4.9160075 -2.5337365 -1.775924
4.5406547 -2.3391666 -1.7665577
4.2433839 -2.183203 -1.7665902
3.9600289 -2.0381908 -1.7588596
0.013985056 0.0073647122 0
0.013985055 0.0073647103 0
0.013983767 0.0073671495 0
0.013983766 0.0073671481 0
0.013981192 0.0073720277 0
0.013981191 0.0073720263 0
0.013982476 0.0073695849 0
0.013982475 0.0073695839 0
0.013981188 0.0073720231 0
0.013981187 0.0073720226 0
56.117001 -29.550112 7.7524214
0.013981186 0.0073720212 0
0.013981185 0.0073720207 0
0.013982471 0.0073695797 0
0.013983757 0.0073671392 0
0.013985042 0.0073646982 0
46.844013 -24.654264 -1.3489628
36.814739 -19.389055 -2.070945
24.218498 -12.744611 -2.0378673
17.407532 -9.1524248 -1.9551998
13.223223 -6.948884 -1.8489151
10.814856 -5.6805897 -1.813464
9.1994238 -4.8278251 -1.7985924
8.013938 -4.2055702 -1.790258
7.0854726 -3.7150474 -1.7789656
6.3615437 -3.3325605 -1.775045
5.8229938 -3.0491893 -1.7871102
5.2958808 -2.7730117 -1.7703632
4.8859572 -2.556145 -1.7707187
4.5261269 -2.3668115 -1.7665577
4.2190304 -2.2033548 -1.7620695
3.9498274 -2.0635777 -1.7599635
0.013939603 0.007450386 0
0.013939601 0.0074503846 0
0.013938299 0.0074528158 0
0.013938298 0.0074528144 0
0.013935694 0.0074576777 0
0.013935694 0.0074576768 0
0.013936994 0.0074552433 0
0.013936993 0.0074552419 0
0.01393569 0.0074576735 0
0.013935689 0.0074576726 0
0.013938291 0.0074528069 0
0.013935688 0.0074576712 0
0.013935687 0.0074576708 0
0.013936988 0.0074552381 0
0.013938289 0.0074528055 0
0.013939589 0.0074503724 0
0.01393959 0.0074503724 0
0.013936988 0.0074552381 0
24.156462 -12.901735 -2.0392787
17.346567 -9.256546 -1.954705
13.17762 -7.0283141 -1.8485464
10.787558 -5.7508659 -1.8147866
9.1808348 -4.8900452 -1.8008119
7.9679937 -4.2438569 -1.7857907
7.0400691 -3.7463224 -1.773316
6.3708549 -3.3873644 -1.783453
5.7964244 -3.0805988 -1.7847459
5.3006616 -2.8170288 -1.7777563
4.8558154 -2.5782812 -1.7655134
4.5080948 -2.3925865 -1.7652482
4.2053413 -2.2290292 -1.7620695
3.9386413 -2.0884788 -1.7606995
0.013893626 0.0075357794 0
0.013893624 0.007535778 0
0.013892307 0.0075382013 0
0.013892306 0.0075381999 0
0.013889672 0.0075430474 0
0.01388967 0.007543046 0
0.013890986 0.0075406204 0
0.013890984 0.0075406195 0
0.013889668 0.0075430428 0
0.013889667 0.0075430423 0
0.013892299 0.0075381924 0
0.013889666 0.0075430409 0
0.013889665 0.0075430404 0
0.013890981 0.0075406157 0
0.013892297 0.007538191 0
74.332588 -40.302773 -0.07378117
0.013893612 0.0075357659 0
0.013890981 0.0075406157 0
24.08201 -13.052397 -2.0397243
17.277981 -9.3564701 -1.9534184
13.1359 -7.1098137 -1.8487922
10.771105 -5.8271532 -1.8180193
9.1332417 -4.9367218 -1.7973974
7.9330893 -4.2878199 -1.7838483
7.0160003 -3.7888126 -1.7730987
6.3199883 -3.410032 -1.775045
5.7730803 -3.1136372 -1.7834325
5.2604294 -2.8369913 -1.7700789
4.8414865 -2.6087635 -1.7661258
4.4973917 -2.4222827 -1.766885
4.1939669 -2.2559588 -1.7631127
3.9272962 -2.1133215 -1.7614354
0.013847125 0.0076208892 0
0.013847123 0.0076208878 0
0.013845791 0.0076233028 0
0.01384579 0.0076233014 0
0.013843127 0.0076281326 0
0.013843126 0.0076281317 0
57.348366 -31.573404 14.48748
0.013844455 0.007625713 0
0.013843122 0.0076281284 0
0.013843121 0.0076281275 0
0.013845783 0.0076232939 0
0.01384312 0.0076281261 0
0.01384312 0.0076281256 0
0.013844451 0.0076257093 0
0.013845781 0.0076232925 0
74.127609 -40.782047 -0.073824801
0.013847112 0.0076208757 0
0.013844451 0.0076257093 0
23.993515 -13.195415 -2.0390558
17.20359 -9.453023 -1.9515378
13.089328 -7.188674 -1.8484235
10.747187 -5.8996406 -1.8200766
9.0931902 -4.9872746 -1.7955194
7.9280229 -4.3480697 -1.7887042
7.0147638 -3.843853 -1.7787483
6.3277736 -3.4644797 -1.7832128
5.7563105 -3.1502259 -1.7842206
5.2302308 -2.862113 -1.7658136
4.8311348 -2.6414616 -1.7682692
4.475728 -2.4460196 -1.764266
4.1774883 -2.2801251 -1.7620695
3.9231253 -2.1421373 -1.765483
0.013800103 0.0077057122 0
0.013800101 0.0077057104 0
0.013798755 0.0077081174 0
0.013798753 0.007708116 0
0.01379606 0.0077129309 0
0.013796058 0.00771293 0
0.013797403 0.0077105206 0
0.013797402 0.0077105197 0
0.013796056 0.0077129267 0
0.013796055 0.0077129258 0
0.013798745 0.007708109 0
0.013796054 0.0077129244 0
0.013796053 0.0077129239 0
0.013797399 0.0077105155 0
0.013798744 0.0077081071 0
0.013800089 0.0077056987 0
50.07888 -27.948 -1.4614782
25.584452 -14.282331 -1.4582782
23.900686 -13.335896 -2.03809
17.12953 -9.5495014 -1.9497564
13.044879 -7.2686834 -1.8484235
10.712419 -5.9662676 -1.8203704
9.0580225 -5.0404043 -1.7946658
7.8925362 -4.3916807 -1.7867618
6.9841342 -3.8828466 -1.77701
6.3003693 -3.4997602 -1.7815312
5.7393069 -3.186727 -1.7850087
5.2250342 -2.90099 -1.7700789
4.8172369 -2.6722767 -1.7691878
4.4696188 -2.4783304 -1.7678672
4.1633258 -2.3055446 -1.7620695
3.9138741 -2.1682639 -1.7673228
0.013752561 0.0077902451 0
0.013752559 0.0077902433 0
0.013751198 0.0077926419 0
0.013751197 0.0077926405 0
0.013748474 0.0077974391 0
0.013748473 0.0077974377 0
0.013749832 0.0077950368 0
0.013749831 0.0077950358 0
0.01374847 0.0077974345 0
0.013748469 0.0077974335 0
0.013751189 0.007792633 0
0.013748468 0.0077974326 0
0.013748467 0.0077974321 0
0.013749828 0.0077950316 0
0.013751187 0.0077926316 0
0.013752548 0.0077902316 0
0.013752548 0.0077902316 0
0.013749828 0.0077950316 0
23.811373 -13.478194 -2.0374959
17.055799 -9.6459198 -1.9480739
13.011165 -7.3547783 -1.8500212
10.665186 -6.0258656 -1.8186071
9.0345469 -5.1000886 -1.7962023
7.8653464 -4.4398565 -1.7867618
6.9524393 -3.9211295 -1.7750543
6.2761478 -3.5367489 -1.7808105
5.7203908 -3.2221887 -1.7852713
5.2120471 -2.9356606 -1.771785
4.7989979 -2.7006772 -1.7685754
4.4443655 -2.4999542 -1.7639387
4.1506386 -2.3318007 -1.7627649
3.9036386 -2.1939008 -1.7687947
0.013704502 0.0078744842 0
0.0137045 0.0078744823 0
0.013703124 0.007876873 0
0.013703123 0.0078768721 0
0.013700371 0.0078816535 0
0.01370037 0.0078816516 0
56.737736 -32.611946 14.48251
0.013701743 0.0078792581 0
54.204792 -31.167933 10.753936
0.013700365 0.0078816479 0
0.013703115 0.0078768646 0
0.013700364 0.007881647 0
0.013700364 0.007881646 0
0.013701739 0.0078792544 0
0.013703113 0.0078768628 0
0.013704488 0.0078744711 0
0.013704488 0.0078744711 0
0.013701739 0.0078792544 0
23.708242 -13.612445 -2.0357873
16.988432 -9.74576 -1.947183
12.978603 -7.4417224 -1.8518649
10.634777 -6.0949659 -1.8197827
9.0038414 -5.1557493 -1.796373
7.8361592 -4.4868875 -1.7863734
6.935771 -3.9679215 -1.77701
6.2382383 -3.56584 -1.7762462
5.6945591 -3.253696 -1.7834325
5.1971655 -2.9693272 -1.7729224
4.7830667 -2.7303777 -1.7688816
4.4296665 -2.5274789 -1.764266
4.1402235 -2.3593886 -1.7645037
3.8940399 -2.2199581 -1.7706344
0.013655926 0.0079584271 0
0.013655924 0.0079584261 0
0.013654534 0.0079608075 0
0.013654533 0.0079608057 0
0.013651751 0.0079655703 0
0.01365175 0.0079655694 0
0.013653139 0.0079631852 0
0.013653138 0.0079631843 0
54.082233 -31.540499 10.767837
0.013651746 0.0079655657 0
0.013654525 0.0079607992 0
0.013651744 0.0079655638 0
0.013651744 0.0079655638 0
0.013653134 0.0079631805 0
66.48671 -38.747292 1.8536369
0.013655913 0.007958414 0
0.013655913 0.007958414 0
24.242832 -14.123847 -1.3963751
23.625898 -13.758496 -2.0359359
16.920479 -9.8451376 -1.9462923
12.93946 -7.5250468 -1.8528482
10.594519 -6.158443 -1.8193419
8.98386 -5.2176743 -1.7987632
7.8117738 -4.5366921 -1.7871503
6.9179444 -4.0141664 -1.7787483
6.2320828 -3.6131628 -1.7808105
5.6468754 -3.2723846 -1.7747636
5.1920061 -3.0087137 -1.777472
4.7759986 -2.765255 -1.7725559
4.4025464 -2.5477862 -1.7596827
4.1190891 -2.3808076 -1.7617217
3.8810523 -2.2441092 -1.7710024
0.013606837 0.008042071 0
0.013606835 0.0080420692 0
0.01360543 0.0080444422 0
0.013605428 0.0080444412 0
0.013602618 0.0080491882 0
0.013602616 0.0080491873 0
0.01360402 0.0080468114 0
0.013604019 0.0080468105 0
53.861294 -31.856022 10.762582
0.013602613 0.0080491835 0
0.013605421 0.0080444338 0
0.013602612 0.0080491817 0
0.013602611 0.0080491817 0
0.013604015 0.0080468068 0
66.206306 -39.129929 1.8524809
84.011169 -49.63768 -0.085147619
0.013606823 0.008042057 0
23.916637 -14.130807 -1.3825525
23.533211 -13.898468 -2.0352674
16.858797 -9.9481001 -1.9461933
12.892946 -7.6041327 -1.8528482
10.54877 -6.2186365 -1.8180193
8.9413977 -5.2665181 -1.7967144
7.7744031 -4.5788813 -1.7850137
6.872076 -4.0439582 -1.773316
6.2038469 -3.6477113 -1.7791289
5.669795 -3.3323178 -1.7884237
5.1791277 -3.0437605 -1.7794625
4.7449088 -2.7861109 -1.7673506
4.3875465 -2.5750647 -1.76001
4.103498 -2.4053929 -1.7613739
3.8663113 -2.2672403 -1.7706344
0.013557235 0.0081254113 0
0.013557233 0.0081254095 0
0.013555814 0.0081277741 0
0.013555812 0.0081277732 0
0.013552972 0.0081325034 0
0.013552971 0.0081325015 0
0.01355439 0.008130135 0
0.013554389 0.0081301341 0
0.013552968 0.0081324987 0
0.013552967 0.0081324978 0
0.013555804 0.0081277657 0
0.013552967 0.0081324968 0
0.013552966 0.0081324959 0
54.736889 -32.81612 3.0986395
64.130028 -38.435116 1.8009428
64.080696 -38.390339 -0.065181933
0.013557222 0.0081253983 0
23.557873 -14.114266 -1.3667909
23.449955 -14.043975 -2.0354903
16.790512 -10.047097 -1.9454015
12.838285 -7.6783404 -1.851742
10.50268 -6.278502 -1.8166968
8.8952923 -5.3130131 -1.7939829
7.7687807 -4.6399465 -1.790258
6.8679681 -4.098423 -1.7787483
6.1820827 -3.6860404 -1.7793691
5.6334147 -3.3574581 -1.7834325
5.1528535 -3.0708804 -1.7769033
4.7243586 -2.8130491 -1.7661258
4.3683224 -2.5998287 -1.7587005
4.0949993 -2.4342105 -1.764156
0.013560072 0.0081206802 0
0.013507122 0.0082084462 0
0.013507121 0.0082084443 0
0.013505686 0.0082108006 0
0.013505685 0.0082107987 0
0.013502817 0.0082155112 0
0.013502816 0.0082155103 0
0.013504248 0.0082131522 0
0.013504247 0.0082131512 0
53.393715 -32.470196 10.748003
0.013502812 0.0082155066 0
0.013505678 0.0082107913 0
0.01350281 0.0082155047 0
0.01350281 0.0082155047 0
0.013504243 0.0082131475 0
0.013505677 0.0082107903 0
0.013507109 0.0082084322 0
0.013507109 0.0082084322 0
23.154993 -14.066355 -1.3483939
23.315523 -14.15842 -2.0313303
16.726749 -10.148733 -1.9452037
12.788286 -7.7552576 -1.8513733
10.463014 -6.3421469 -1.8165499
8.8666363 -5.369885 -1.7948365
7.7383881 -4.6863422 -1.7898695
6.8275757 -4.1311984 -1.774837
6.1667166 -3.7282717 -1.7815312
5.6068349 -3.388289 -1.7815936
5.1215239 -3.0948071 -1.772638
4.7207427 -2.8502178 -1.7713311
4.3481503 -2.6239648 -1.7570636
4.0726724 -2.4547474 -1.7610261
3.8292577 -2.3088722 -1.7665869
0.013456502 0.0082911719 0
0.0134565 0.00829117 0
0.013455051 0.0082935169 0
0.01345505 0.0082935151 0
0.013452153 0.0082982108 0
0.013452152 0.0082982089 0
0.013453598 0.0082958601 0
0.013453597 0.0082958592 0
0.013452148 0.0082982061 0
0.013452147 0.0082982052 0
0.013455043 0.0082935086 0
0.013452146 0.0082982043 0
56.915726 -35.093258 4.9097424
0.013453593 0.0082958555 0
0.013455041 0.0082935067 0
0.013456488 0.0082911579 0
0.013456488 0.0082911579 0
23.02054 -14.178645 -1.3456095
23.217073 -14.294246 -2.0303648
16.647118 -10.24057 -1.9432242
12.745429 -7.8365369 -1.8521107
10.430538 -6.4102125 -1.8177254
8.8376141 -5.4266067 -1.7956901
7.6976948 -4.726366 -1.7871503
6.8177891 -4.1825738 -1.7789656
6.1163454 -3.7490795 -1.7736037
5.5841956 -3.4214506 -1.7810682
5.1170306 -3.1350582 -1.7777563
4.6884727 -2.8699806 -1.7658197
4.328649 -2.6484478 -1.7557541
4.0590305 -2.4805074 -1.7617217
3.8109589 -2.3297215 -1.764747
0.013405374 0.0083735846 0
0.013405372 0.0083735837 0
0.013403909 0.0083759213 0
0.013403908 0.0083759204 0
0.013400982 0.0083805975 0
0.013400981 0.0083805956 0
0.013402442 0.0083782561 0
0.013402442 0.0083782542 0
0.013400977 0.0083805928 0
0.013400977 0.0083805919 0
0.013403901 0.0083759129 0
0.013400976 0.0083805909 0
56.177502 -35.115387 4.8645544
56.904659 -35.556328 3.2579172
56.857956 -35.513336 1.6147796
0.013405361 0.0083735716 0
0.013405361 0.0083735716 0
22.791574 -14.23105 -1.337306
23.150814 -14.450009 -2.0322962
16.564457 -10.330232 -1.9409478
12.707104 -7.9207377 -1.8535856
10.390068 -6.4734035 -1.8175784
8.8165855 -5.4883938 -1.798251
7.6509757 -4.7624307 -1.7830714
6.7877555 -4.2215781 -1.7778791
6.1227698 -3.8048763 -1.7822518
5.580184 -3.4662137 -1.7865847
5.0642548 -3.1454127 -1.766098
4.6827865 -2.90609 -1.7704126
4.3154216 -2.6767941 -1.7570636
4.0420413 -2.504209 -1.7610261
3.7901802 -2.3489573 -1.7618034
0.013353742 0.0084556835 0
0.013353741 0.0084556816 0
0.013352263 0.0084580109 0
0.013352262 0.008458009 0
0.013349307 0.0084626684 0
0.013349306 0.0084626675 0
0.013350781 0.0084603354 0
0.01335078 0.0084603345 0
0.013349303 0.0084626637 0
0.013349302 0.0084626628 0
52.085155 -32.976788 7.5356908
0.0133493 0.0084626619 0
0.0133493 0.0084626619 0
56.913956 -36.049541 3.2710609
56.615231 -35.846397 1.6141052
56.468918 -35.73991 -0.058313187
0.013353729 0.0084556704 0
22.715532 -14.377949 -1.3380022
23.070879 -14.597493 -2.0331132
16.482161 -10.419798 -1.9387704
12.645584 -7.9904299 -1.851742
10.351722 -6.5379276 -1.8178724
8.7967939 -5.5511823 -1.8011533
7.6438842 -4.8232913 -1.7883157
6.7698693 -4.2682037 -1.7800521
6.1106901 -3.8494751 -1.7856151
5.5660462 -3.5048664 -1.788949
5.0536675 -3.1819031 -1.7692258
4.6615462 -2.9325678 -1.7691878
4.2988129 -2.703058 -1.7570636
4.0296669 -2.530803 -1.7624172
3.7740216 -2.3710103 -1.7610674
0.013301607 0.0085374629 0
0.013301605 0.008537461 0
0.013300113 0.008539781 0
0.013300112 0.00853978 0
0.013297129 0.0085444208 0
0.013297128 0.0085444199 0
0.013298618 0.0085420972 0
0.013298617 0.0085420962 0
0.013297125 0.0085444162 0
0.013297124 0.0085444162 0
51.862518 -33.283257 7.5328999
0.013297123 0.0085444143 0
0.013297123 0.0085444143 0
67.096428 -43.081314 3.8715532
0.013300104 0.0085397717 0
0.013301594 0.0085374499 0
0.013301594 0.0085374499 0
22.435183 -14.393825 -1.3266656
22.997555 -14.749392 -2.0345988
16.4086 -10.514658 -1.9376817
12.589532 -8.0634184 -1.8507587
10.309642 -6.6000891 -1.8175784
8.7550001 -5.600101 -1.7996168
7.5901008 -4.8545723 -1.7826829
6.7787757 -4.3321638 -1.7893956
6.0901198 -3.8888295 -1.7865759
5.5394592 -3.5356636 -1.7873728
5.0299106 -3.2100995 -1.767804
4.6369505 -2.95684 -1.7667382
4.2915869 -2.7353415 -1.7609922
4.0186949 -2.5583522 -1.7645037
3.7569506 -2.3924527 -1.7599635
0.013248972 0.008618921 0
0.01324897 0.0086189201 0
0.013247464 0.0086212307 0
0.013247462 0.0086212289 0
0.013244451 0.0086258519 0
0.01324445 0.0086258501 0
53.820183 -35.021694 14.210442
0.013245953 0.0086235367 0
0.013244446 0.0086258473 0
0.013244445 0.0086258464 0
51.599812 -33.563332 7.5245266
0.013244445 0.0086258454 0
0.013244445 0.0086258454 0
0.01324595 0.008623533 0
0.013247454 0.0086212205 0
0.013248959 0.008618908 0
0.013248959 0.008618908 0
22.492813 -14.626411 -1.335367
22.934935 -14.908555 -2.0371244
16.334496 -10.60901 -1.9365931
12.538051 -8.1392698 -1.8505129
10.261384 -6.658206 -1.8162559
8.7013702 -5.6411977 -1.7956901
7.5798006 -4.9137278 -1.7873445
6.7241392 -4.3554206 -1.7820077
6.0733638 -3.9307227 -1.788738
5.5102749 -3.5646906 -1.7850087
5.0051918 -3.2376027 -1.766098
4.6441565 -3.0016756 -1.7765365
4.2706566 -2.7588847 -1.7593553
4.0075345 -2.5858634 -1.7665902
0.013251981 0.008614298 0
0.013195837 0.0087000551 0
0.013195835 0.0087000541 0
0.013194315 0.0087023554 0
0.013194314 0.0087023536 0
0.013191274 0.008706958 0
0.013191273 0.0087069562 0
53.706043 -35.41832 14.237454
0.01319279 0.0087046521 0
0.01319127 0.0087069534 0
0.013191269 0.0087069524 0
51.638889 -34.041466 7.5605674
0.013191268 0.0087069515 0
0.013191267 0.0087069515 0
0.013192786 0.0087046484 0
0.013194305 0.0087023452 0
0.013195824 0.008700042 0
48.466957 -31.937256 -1.4792117
22.416712 -14.773338 -1.3362122
22.917011 -15.097705 -2.0437355
16.269817 -10.709421 -1.936692
12.482796 -8.2126083 -1.8497754
10.221056 -6.7214251 -1.8164029
8.6738911 -5.6991992 -1.7972267
7.5797043 -4.97996 -1.7945312
6.6727319 -4.3803201 -1.775489
6.0449724 -3.9650815 -1.7875369
5.4833584 -3.5950863 -1.7834325
4.9915304 -3.272311 -1.7683728
4.6112361 -3.0205255 -1.7710249
4.2614331 -2.7900724 -1.7626292
3.997752 -2.6143661 -1.7693722
3.7302051 -2.4400959 -1.7614354
0.013142206 0.0087808613 0
0.013142204 0.0087808603 0
0.01314067 0.0087831523 0
0.013140668 0.0087831505 0
0.0131376 0.0087877363 0
0.013137599 0.0087877344 0
53.645874 -35.852856 14.279593
0.013139131 0.0087854397 0
0.013137596 0.0087877316 0
0.013137596 0.0087877307 0
0.013140662 0.0087831439 0
0.013137594 0.0087877298 0
0.013137594 0.0087877298 0
0.013139127 0.0087854359 0
84.651817 -56.563671 2.4524901
0.013142193 0.0087808482 0
48.050533 -32.087261 -1.4724852
22.360405 -14.933761 -1.3383005
22.800619 -15.222358 -2.0416558
16.19459 -10.802807 -1.9356033
12.407307 -8.2723446 -1.8460882
10.181983 -6.7855005 -1.8168437
8.6337357 -5.7488685 -1.7962023
7.5285072 -5.0125885 -1.7896754
6.6521163 -4.4253559 -1.7772273
6.0058908 -3.992234 -1.7832128
5.4691143 -3.6338594 -1.7860594
4.9808183 -3.3091047 -1.771785
4.6091352 -3.0597012 -1.777455
4.2401972 -2.8133824 -1.7609922
3.9862082 -2.6418066 -1.7714587
3.7227893 -2.4679391 -1.765115
0.013088079 0.0088613378 0
0.013088078 0.0088613359 0
0.013086529 0.0088636186 0
0.013086529 0.0088636167 0
0.013083432 0.0088681839 0
0.013083431 0.0088681821 0
0.013084977 0.0088658975 0
0.013084976 0.0088658966 0
0.013083428 0.0088681793 0
0.013083427 0.0088681784 0
0.013086521 0.0088636102 0
0.013083426 0.0088681774 0
0.013083425 0.0088681765 0
0.013084972 0.0088658929 0
0.01308652 0.0088636084 0
0.013088066 0.0088613247 0
0.013088066 0.0088613247 0
22.331085 -15.113098 -1.3420793
22.746313 -15.388656 -2.0452213
16.121302 -10.897346 -1.9348115
12.359495 -8.3503828 -1.8465798
10.139229 -6.8471322 -1.8166968
8.6055346 -5.8065453 -1.7977388
7.4771938 -5.0447774 -1.7848195
6.6101794 -4.45608 -1.773316
5.9924302 -4.0364642 -1.7865759
5.4474058 -3.6677282 -1.7863221
4.96984 -3.3458912 -1.7751971
4.5641475 -3.0701599 -1.7673506
4.2321382 -2.8455391 -1.7649208
3.9628251 -2.6613283 -1.768329
3.7113192 -2.4931791 -1.7669548
0.013033461 0.008941479 0
0.013033459 0.0089414781 0
0.013031896 0.0089437515 0
0.013031895 0.0089437496 0
0.013028772 0.0089482972 0
0.01302877 0.0089482963 0
0.013030331 0.0089460202 0
0.01303033 0.0089460192 0
0.013028767 0.0089482926 0
0.013028766 0.0089482917 0
0.013031889 0.0089437431 0
0.013028765 0.0089482907 0
0.013028764 0.0089482907 0
0.013030326 0.0089460164 0
0.013031887 0.0089437412 0
76.631691 -52.554905 -0.081084497
47.247368 -32.395939 -1.4599495
22.277346 -15.276808 -1.344466
22.639841 -15.519874 -2.0441813
16.024485 -10.975634 -1.9312485
12.310371 -8.4275856 -1.8469485
10.095285 -6.9079366 -1.8164029
8.5696354 -5.8590775 -1.7977388
7.4637856 -5.1026096 -1.7890927
6.6059489 -4.5124044 -1.7796174
5.9322128 -4.0488462 -1.7760059
5.4294648 -3.7041967 -1.7878983
4.9617581 -3.3848374 -1.7797468
4.5655293 -3.1119413 -1.7753116
4.2324152 -2.8835809 -1.7724506
3.9432182 -2.6833136 -1.766938
3.7027452 -2.5204756 -1.7702665
0.012978351 0.009021285 0
0.012978349 0.0090212831 0
0.012976773 0.0090235472 0
0.012976772 0.0090235453 0
0.01297362 0.0090280734 0
0.012973619 0.0090280725 0
52.448326 -36.466312 14.137184
52.118568 -36.236923 12.475825
0.012973616 0.0090280697 0
0.012973615 0.0090280687 0
0.012976765 0.0090235388 0
0.012973614 0.0090280678 0
0.012973613 0.0090280669 0
0.012975189 0.0090258019 0
0.012976764 0.0090235369 0
0.012978338 0.009021272 0
52.024395 -36.144482 -1.614429
22.27327 -15.475789 -1.3499353
22.476122 -15.611083 -2.0380158
15.939569 -11.061665 -1.9291701
12.260764 -8.5045013 -1.8473173
10.055036 -6.9712839 -1.8168437
8.5390778 -5.9153252 -1.7989339
7.4096732 -5.1324739 -1.7836541
6.5852418 -4.5577054 -1.7815731
5.9087429 -4.0861168 -1.7764864
5.3676934 -3.71031 -1.7750262
4.9234653 -3.4030232 -1.773491
4.5431118 -3.1375642 -1.7740868
4.1990113 -2.8985555 -1.7659029
3.9219484 -2.7040906 -1.7648515
3.6871006 -2.5429878 -1.7702665
0.012922753 0.009100751 0
0.012922751 0.0091007492 0
0.012921161 0.009103003 0
0.01292116 0.009103002 0
0.01291798 0.0091075106 0
0.012917979 0.0091075096 0
0.012919568 0.009105253 0
0.012919566 0.0091052521 0
0.012917976 0.0091075059 0
0.012917975 0.0091075059 0
0.012921153 0.0091029946 0
0.012917974 0.009107504 0
0.012917973 0.009107504 0
0.012919563 0.0091052484 0
51.808392 -36.48122 1.5263219
0.01292274 0.009100738 0
0.01292274 0.009100738 0
0.012919563 0.0091052484 0
22.319471 -15.706039 -2.0325189
15.847691 -11.142485 -1.9262999
12.203371 -8.575984 -1.8465798
10.011961 -7.03269 -1.8168437
8.4823685 -5.9532695 -1.7946658
7.3947735 -5.1895442 -1.787733
6.5738029 -4.6096663 -1.7861363
5.9247293 -4.151186 -1.7889782
5.3794351 -3.7674491 -1.7865847
4.8937578 -3.426939 -1.7703632
4.5065365 -3.1531687 -1.7673506
4.1856728 -2.9273691 -1.7678672
3.9013371 -2.7252483 -1.7631127
3.6827233 -2.573431 -1.7757859
0.012866667 0.0091798743 0
0.012866667 0.0091798725 0
0.012865063 0.0091821169 0
0.012865061 0.0091821151 0
0.012861853 0.0091866041 0
0.012861853 0.0091866031 0
0.012863454 0.0091843568 0
0.012863453 0.0091843558 0
0.01286185 0.0091866003 0
0.012861849 0.0091865994 0
0.012865054 0.0091821086 0
0.012861848 0.0091865985 0
0.012861847 0.0091865975 0
84.271187 -60.15065 5.0272865
51.286457 -36.586281 1.5175315
0.012866655 0.0091798613 0
0.012866655 0.0091798613 0
34.642269 -24.715961 -2.1182797
22.233934 -15.850646 -2.0335588
15.765141 -11.22953 -1.9246174
12.141522 -8.6442022 -1.8452278
9.9677038 -7.0932565 -1.8166968
8.4624147 -6.0170603 -1.798251
7.3618813 -5.2340918 -1.7875388
6.5468726 -4.6508908 -1.7865708
5.8903403 -4.1811042 -1.7863357
5.3584623 -3.8019075 -1.7873728
4.8881378 -3.4678769 -1.7760502
4.488543 -3.1817076 -1.7679629
4.164443 -2.950644 -1.7665577
3.8821394 -2.7473445 -1.7620695
3.6697805 -2.5979798 -1.7772578
0.012810099 0.0092586512 0
0.012810097 0.0092586502 0
0.012808479 0.0092608845 0
0.012808478 0.0092608826 0
0.012805243 0.009265352 0
0.012805242 0.0092653511 0
0.012806858 0.009263115 0
0.012806857 0.0092631141 0
0.012805239 0.0092653483 0
0.012805238 0.0092653474 0
0.012808471 0.0092608761 0
0.012805237 0.0092653465 0
0.012805237 0.0092653455 0
83.970009 -60.716782 5.0314574
50.953953 -36.822803 1.5143526
0.012810086 0.0092586391 0
50.678288 -36.610027 -1.5933069
0.012806853 0.0092631103 0
22.100586 -15.960905 -2.0302904
15.683731 -11.317151 -1.9231328
12.088141 -8.7183809 -1.8452278
9.92869 -7.1576023 -1.8175784
8.4292164 -6.071599 -1.7991046
7.3144088 -5.2680888 -1.7838483
6.514143 -4.6879578 -1.7854843
5.8361325 -4.1965494 -1.7776875
5.3278813 -3.8294725 -1.7850087
4.8651004 -3.4965239 -1.7754815
4.4803991 -3.2173917 -1.7725559
4.1515093 -2.9798558 -1.7688494
3.8704183 -2.774796 -1.7645037
3.6566732 -2.622468 -1.7787296
0.012753047 0.0093370806 0
0.012753045 0.0093370788 0
0.012751414 0.0093393037 0
0.012751413 0.0093393018 0
0.012748151 0.0093437517 0
0.01274815 0.0093437498 0
0.012749779 0.009341524 0
0.012749778 0.0093415231 0
0.012748146 0.009343747 0
0.012748146 0.0093437461 0
0.012751406 0.0093392953 0
0.012748145 0.0093437452 0
0.012748145 0.0093437452 0
0.012749774 0.0093415193 0
50.530952 -36.991058 1.5085003
0.012753035 0.0093370676 0
50.302555 -36.810295 -1.5885677
0.012749774 0.0093415193 0
21.979595 -16.079556 -2.0282106
15.599429 -11.402433 -1.9213513
12.034305 -8.7922306 -1.8452278
9.8645182 -7.2036238 -1.8139049
8.3948698 -6.1253757 -1.7997875
7.2968717 -5.3237233 -1.7875388
6.4638748 -4.7121172 -1.7796174
5.8109426 -4.2326961 -1.7779278
5.2948256 -3.8550978 -1.7818563
4.8442144 -3.5267189 -1.7757659
4.4550815 -3.2407303 -1.7704126
4.1398969 -3.0101368 -1.7717959
3.8569906 -2.8011017 -1.7662425
3.6351466 -2.6408551 -1.7761539
0.012695516 0.0094151581 0
0.012695514 0.0094151562 0
0.012693869 0.0094173709 0
0.012693868 0.00941737 0
0.012690579 0.0094217984 0
0.012690578 0.0094217975 0
0.012692221 0.0094195819 0
0.01269222 0.00941958 0
0.012690574 0.0094217947 0
0.012690574 0.0094217937 0
53.585674 -39.735695 8.1550589
0.012690572 0.0094217928 0
0.012690572 0.0094217919 0
0.012692216 0.0094195772 0
50.097378 -37.147774 1.5023351
0.012695503 0.009415146 0
49.948765 -37.02401 -1.584542
0.012692216 0.0094195772 0
21.891619 -16.222279 -2.0292504
15.51467 -11.487108 -1.9195697
11.98161 -8.8669319 -1.8454736
9.8112783 -7.2573776 -1.8122884
8.3506804 -6.1719193 -1.7984217
7.2552867 -5.3618116 -1.7854022
6.4284525 -4.7468834 -1.7778791
5.8081446 -4.2854543 -1.7851346
5.2725072 -3.8885062 -1.7823817
4.8208289 -3.5550776 -1.7751971
4.4158773 -3.2536786 -1.7627577
4.1174388 -3.0325127 -1.7701589
3.8411233 -2.8256743 -1.766938
3.6224949 -2.6657219 -1.7779937
0.012637506 0.0094928807 0
0.012637504 0.0094928797 0
0.012635846 0.0094950842 0
0.012635845 0.0094950823 0
0.012632528 0.0094994912 0
0.012632527 0.0094994903 0
0.012634183 0.009497284 0
0.012634182 0.009497283 0
0.012632524 0.0094994875 0
0.012632524 0.0094994865 0
0.012635838 0.0094950758 0
0.012632522 0.0094994856 0
0.012632522 0.0094994847 0
0.01263418 0.0094972793 0
0.012635836 0.0094950739 0
0.012637493 0.0094928686 0
49.555878 -37.205952 -1.5792934
0.01263418 0.0094972793 0
21.787565 -16.353146 -2.0288792
15.430253 -11.571773 -1.9178872
11.91734 -8.9329748 -1.8439988
9.7696114 -7.3196626 -1.8128762
8.3078098 -6.2193365 -1.7973974
7.2229195 -5.4066615 -1.7855964
6.4022117 -4.7884269 -1.7787483
5.7979279 -4.3330932 -1.7901794
5.2561498 -3.9264209 -1.7850087
4.7942095 -3.5809808 -1.773491
4.405612 -3.287986 -1.7667382
4.0993943 -3.0581312 -1.7704862
3.8288479 -2.852972 -1.7693722
3.5955436 -2.6799283 -1.7728422
0.01257902 0.0095702466 0
0.012579019 0.0095702447 0
0.012577347 0.0095724389 0
0.012577346 0.009572438 0
0.012574002 0.0095768264 0
0.012574001 0.0095768254 0
0.012575671 0.0095746294 0
0.01257567 0.0095746284 0
0.012573998 0.0095768226 0
0.012573997 0.0095768217 0
53.245445 -40.505394 8.1783581
0.012573997 0.0095768208 0
0.012573996 0.0095768198 0
0.012575667 0.0095746247 0
0.012577337 0.0095724296 0
0.012579008 0.0095702345 0
49.231068 -37.436531 -1.5762359
0.012575667 0.0095746247 0
21.671621 -16.474894 -2.0274677
15.343797 -11.65463 -1.9160068
11.8535 -8.9991646 -1.8426467
9.7259722 -7.3805127 -1.8131701
8.2732973 -6.2730227 -1.798251
7.212913 -5.4685426 -1.7914234
6.3547239 -4.8138742 -1.7737505
5.7649331 -4.3637319 -1.7882576
5.2310743 -3.957859 -1.7847459
4.7697406 -3.608434 -1.772638
4.3837223 -3.3136492 -1.7661258
4.0909667 -3.0910778 -1.7750696
3.8148868 -2.8790925 -1.771111
3.5774353 -2.700659 -1.7721063
0.012520062 0.009647252 0
0.01252006 0.0096472502 0
0.012518374 0.0096494341 0
0.012518373 0.0096494332 0
0.012515003 0.0096538011 0
0.012515002 0.0096537992 0
0.012516686 0.0096516144 0
0.012516685 0.0096516134 0
0.012514999 0.0096537964 0
0.012514998 0.0096537964 0
0.012518367 0.0096494257 0
0.012514997 0.0096537946 0
0.012514996 0.0096537946 0
0.012516681 0.0096516097 0
49.011257 -37.759808 1.4903656
49.006702 -37.742668 -0.053976044
48.753254 -37.547375 -1.5682864
0.012516681 0.0096516097 0
21.536045 -16.581224 -2.0242736
15.260056 -11.739294 -1.9145222
11.793225 -9.0679379 -1.8419093
9.6725502 -7.4338593 -1.8117006
8.2337532 -6.3229127 -1.7980803
7.1682272 -5.5041604 -1.7887042
6.3365493 -4.8615556 -1.77701
5.7433157 -4.4030137 -1.7899392
5.2134538 -3.9950254 -1.7871102
4.7397976 -3.6316278 -1.7697945
4.3684702 -3.3443959 -1.7682692
4.0598273 -3.1067436 -1.7698315
3.8007472 -2.9051504 -1.7728498
3.5488918 -2.7133279 -1.7662189
0.012460631 0.0097238943 0
0.012460629 0.0097238924 0
0.012458931 0.0097260661 0
0.01245893 0.0097260643 0
0.012455532 0.0097304117 0
0.012455531 0.0097304108 0
0.012457228 0.0097282352 0
0.012457227 0.0097282343 0
0.012455529 0.009730408 0
0.012455528 0.009730407 0
0.012458923 0.0097260578 0
0.012455527 0.0097304061 0
0.012455526 0.0097304052 0
0.012457224 0.0097282315 0
0.012458921 0.0097260568 0
0.012460619 0.0097238813 0
48.351601 -37.712814 -1.562783
0.012457224 0.0097282315 0
21.440855 -16.718426 -2.0249422
15.168791 -11.817861 -1.9121468
11.741939 -9.1436396 -1.8426467
9.6266365 -7.4929156 -1.8117006
8.1923523 -6.3713431 -1.7975681
7.1543078 -5.5635777 -1.7937542
6.297246 -4.8929863 -1.7744025
5.7137761 -4.4362268 -1.7892184
5.1750288 -4.0161057 -1.7823817
4.7165508 -3.659899 -1.7695101
4.352253 -3.374496 -1.7701063
4.0435505 -3.1337662 -1.7711411
3.7797735 -2.9259577 -1.7714587
0.012464026 0.009719545 0
0.012400731 0.0098001696 0
0.012400731 0.0098001687 0
0.012399018 0.0098023312 0
0.012399017 0.0098023303 0
0.012395593 0.0098066563 0
0.012395592 0.0098066553 0
0.012397302 0.009804491 0
0.012397301 0.00980449 0
0.012395589 0.0098066526 0
0.012395589 0.0098066516 0
0.01239901 0.0098023238 0
0.012395587 0.0098066507 0
0.012395587 0.0098066498 0
0.012397298 0.0098044863 0
0.012399008 0.0098023219 0
0.012400719 0.0098001575 0
47.92466 -37.854912 -1.5564642
0.012397298 0.0098044863 0
21.266562 -16.793236 -2.0181823
15.079478 -11.897602 -1.9100684
11.680044 -9.2110538 -1.8417864
9.5780325 -7.5498495 -1.8112597
8.1483459 -6.4176726 -1.7965437
7.1260734 -5.6120839 -1.7953081
6.2899632 -4.949533 -1.7809212
5.6695695 -4.4578137 -1.7839334
5.1486549 -4.0464344 -1.7818563
4.6931334 -3.6880231 -1.7692258
4.336576 -3.4051144 -1.7722497
4.0211601 -3.1560225 -1.7698315
3.7645738 -2.9512651 -1.7728498
0.012404153 0.0097958418 0
0.012340365 0.0098760771 0
0.012340364 0.0098760752 0
0.012338638 0.0098782275 0
0.012338637 0.0098782266 0
0.012335187 0.0098825321 0
0.012335186 0.0098825302 0
0.01233691 0.009880376 0
0.012336909 0.0098803751 0
0.012335183 0.0098825274 0
0.012335182 0.0098825274 0
0.012338631 0.00987822 0
0.012335181 0.0098825255 0
0.01233518 0.0098825255 0
0.012336905 0.0098803723 0
0.012338629 0.0098782182 0
0.012340353 0.009876065 0
47.600826 -38.075649 -1.5535086
33.923515 -27.148987 -2.1628797
21.166891 -16.926373 -2.0185537
14.989757 -11.976694 -1.90799
11.618537 -9.2786751 -1.841049
9.5329514 -7.609561 -1.8115537
8.1125412 -6.4704747 -1.7973974
7.0684075 -5.6371627 -1.789481
6.2723122 -4.9982486 -1.7846152
5.6366835 -4.4881215 -1.7822518
5.1386805 -4.0898499 -1.7871102
4.6485853 -3.6992292 -1.7609797
4.3065591 -3.424372 -1.7685754
4.0045514 -3.1828449 -1.7711411
3.7426119 -2.9712296 -1.771111
0.012343814 0.0098717697 0
0.012279534 0.009951612 0
0.012279533 0.009951611 0
0.012277794 0.0099537522 0
0.012277793 0.0099537512 0
0.012274317 0.0099580353 0
0.012274316 0.0099580344 0
0.012276052 0.0099558905 0
0.012276052 0.0099558895 0
0.012274313 0.0099580316 0
0.012274312 0.0099580307 0
0.012277787 0.0099537447 0
0.012274311 0.0099580297 0
0.01227431 0.0099580288 0
0.012276048 0.0099558858 0
47.421692 -38.425552 1.4702803
0.012279522 0.0099515999 0
47.168915 -38.206982 -1.5470369
33.446659 -27.105459 -2.1430409
21.077232 -17.067713 -2.0199652
14.891899 -12.048871 -1.9049219
11.557409 -9.3465147 -1.8404344
9.4944124 -7.6746101 -1.8131701
8.0702686 -6.5181184 -1.7968853
7.0396609 -5.6852169 -1.7910349
6.2323031 -5.0291157 -1.7820077
5.6074085 -4.5212498 -1.7817714
5.1193662 -4.1260099 -1.7892118
4.6428123 -3.7414119 -1.7675197
4.2860851 -3.4511797 -1.7688816
3.972342 -3.1970956 -1.7655755
3.7198164 -2.9904475 -1.7690245
3.4569154 -2.7796788 -1.7540761
0.012218241 0.010026773 0
0.01221824 0.010026772 0
0.012216488 0.010028902 0
0.012216487 0.010028901 0
0.012212984 0.010033163 0
0.012212982 0.010033162 0
0.012214732 0.01003103 0
0.012214731 0.010031029 0
0.01221298 0.01003316 0
0.01221298 0.010033159 0
0.01221648 0.010028894 0
0.012212978 0.010033158 0
0.012212978 0.010033158 0
0.012214729 0.010031025 0
0.012216479 0.010028893 0
0.012218229 0.01002676 0
46.862373 -38.437191 -1.5446929
0.012214729 0.010031025 0
20.990486 -17.211754 -2.0217481
14.80449 -12.129137 -1.9032394
11.498186 -9.415844 -1.8401886
9.4477863 -7.7331991 -1.8133171
8.0231438 -6.561739 -1.7953486
7.0060391 -5.7293983 -1.7914234
6.1793203 -5.0491576 -1.7757062
5.5824418 -4.5578828 -1.7827322
5.0818934 -4.1474042 -1.7850087
4.6196461 -3.7696784 -1.7675197
0.012221738 0.010022504 0
0.012221739 0.010022505 0
3.6954737 -3.0083106 -1.7662425
3.4396725 -2.8006868 -1.7540761
0.012156487 0.010101556 0
0.012156487 0.010101554 0
0.012154722 0.010103675 0
0.01215472 0.010103673 0
0.012151191 0.010107914 0
0.01215119 0.010107913 0
0.012152953 0.010105792 0
0.012152952 0.010105791 0
0.012151187 0.01010791 0
0.012151186 0.010107909 0
0.012154714 0.010103666 0
0.012151185 0.010107908 0
0.012151185 0.010107908 0
0.012152949 0.010105787 0
0.012154712 0.010103665 0
0.012156475 0.010101544 0
46.39563 -38.532829 -1.5370746
0.012152949 0.010105787 0
20.909666 -17.361113 -2.0241992
14.721246 -12.212602 -1.9021506
11.440835 -9.4867029 -1.8403115
9.3992739 -7.7902417 -1.8131701
7.9841237 -6.6119537 -1.7956901
6.9811916 -5.7809057 -1.7941427
6.1593628 -5.0961838 -1.7789656
5.5236278 -4.5664744 -1.7728829
5.0384111 -4.1635642 -1.7787039
4.5963058 -3.7978032 -1.7675197
4.2351108 -3.4965255 -1.7655134
3.9296577 -3.2428856 -1.764266
3.676101 -3.0301802 -1.7658948
3.4308844 -2.8287179 -1.7584916
0.012094277 0.010175958 0
0.012094275 0.010175956 0
0.012092497 0.010178066 0
0.012092496 0.010178065 0
0.012088941 0.010182285 0
0.01208894 0.010182283 0
0.012090717 0.010180173 0
0.012090716 0.010180172 0
0.012088938 0.01018228 0
0.012088937 0.01018228 0
0.01209249 0.010178058 0
0.012088936 0.010182278 0
0.012088936 0.010182278 0
0.012090712 0.010180168 0
0.012092489 0.010178057 0
0.012094265 0.010175946 0
46.04958 -38.725243 -1.5334566
0.012090712 0.010180168 0
20.83543 -17.516548 -2.0273933
14.642103 -12.299347 -1.9016558
11.376971 -9.5521021 -1.8394511
9.3473892 -7.8444347 -1.8124354
7.924428 -6.644814 -1.791422
6.9477172 -5.8253784 -1.7947254
6.1323352 -5.1375017 -1.7802694
5.5421891 -4.6394882 -1.7880173
5.0207691 -4.2010822 -1.7815936
4.5705914 -3.8239336 -1.7666667
0.012097825 0.010171733 0
3.9016063 -3.2600985 -1.7606648
3.6558795 -3.0513237 -1.7651992
3.4161861 -2.8519604 -1.7599635
0.01203161 0.010249978 0
0.012031609 0.010249976 0
0.012029818 0.010252075 0
0.012029817 0.010252073 0
0.012026236 0.010256271 0
0.012026235 0.01025627 0
0.012028025 0.01025417 0
0.012028024 0.010254169 0
0.012026233 0.010256267 0
0.012026232 0.010256266 0
0.012029811 0.010252067 0
0.012026231 0.010256265 0
0.01202623 0.010256265 0
0.01202802 0.010254165 0
0.012029809 0.010252066 0
0.012031598 0.010249966 0
45.722702 -38.931717 -1.530501
0.01202802 0.010254165 0
20.724398 -17.641327 -2.0270963
14.563963 -12.386873 -1.9013588
11.306689 -9.611928 -1.8376075
9.2914257 -7.8950787 -1.8109659
7.8931341 -6.7014689 -1.7936414
6.8631811 -5.8264012 -1.7821002
6.1139483 -5.1862755 -1.7841806
5.5201445 -4.6789217 -1.7901794
4.9977112 -4.2341633 -1.7826444
4.5491071 -3.8536224 -1.7675197
4.2133827 -3.566448 -1.7746992
3.8828435 -3.2850533 -1.7613195
3.6326785 -3.0699048 -1.7631127
0.012035189 0.010245779 0
0.011968491 0.010323611 0
0.01196849 0.01032361 0
0.011966686 0.010325697 0
0.011966685 0.010325696 0
0.011963079 0.010329871 0
0.011963078 0.010329871 0
0.011964879 0.010327782 0
0.011964878 0.010327781 0
0.011963075 0.010329868 0
0.011963074 0.010329867 0
0.011966678 0.01032569 0
0.011963073 0.010329866 0
0.011963072 0.010329866 0
0.011964875 0.010327777 0
45.413227 -39.165165 1.4446076
45.472595 -39.202553 -0.052391287
45.385185 -39.127155 -1.5272142
0.011964875 0.010327777 0
20.547684 -17.709377 -2.0204108
14.47927 -12.468706 -1.9002701
11.239859 -9.6744938 -1.8363785
9.2411842 -7.9505014 -1.810672
7.8495016 -6.7476959 -1.7931292
6.8665442 -5.9022136 -1.7923946
6.0863204 -5.2273693 -1.7854843
5.4640007 -4.6891074 -1.7812909
4.9663954 -4.2601914 -1.7808055
4.5274282 -3.8831933 -1.7683728
4.1934576 -3.5939507 -1.7756178
3.8617723 -3.3080516 -1.7609922
3.6136479 -3.0919888 -1.7631127
0.011972095 0.010319434 0
0.011904921 0.010396857 0
0.01190492 0.010396855 0
0.011903103 0.010398932 0
0.011903103 0.01039893 0
0.01189947 0.010403084 0
0.011899469 0.010403083 0
0.011901284 0.010401004 0
0.011901283 0.010401003 0
0.011899467 0.01040308 0
0.011899466 0.010403079 0
0.011903096 0.010398923 0
0.011899465 0.010403078 0
0.011899464 0.010403077 0
0.01190128 0.010401 0
45.10041 -39.380447 1.4423196
0.011904909 0.010396845 0
45.046242 -39.319267 -1.5239019
0.01190128 0.010401 0
20.464794 -17.857939 -2.0230107
14.397118 -12.552586 -1.8995774
11.178663 -9.7418251 -1.8361326
9.1958246 -8.0101604 -1.8114067
7.8093085 -6.7968817 -1.7934707
6.8167739 -5.9324732 -1.7888983
6.07827 -5.2856531 -1.792655
5.46206 -4.7460146 -1.7901794
4.9327655 -4.2840934 -1.7781786
4.514945 -3.9208412 -1.7729224
4.1640272 -3.6132071 -1.7725559
0.011908548 0.010392698 0
3.5994275 -3.1182704 -1.7655469
0.011908551 0.010392701 0
0.011840903 0.01046971 0
0.011840901 0.010469709 0
0.011839072 0.010471773 0
0.011839071 0.010471772 0
0.011835414 0.010475904 0
0.011835413 0.010475902 0
0.01183724 0.010473835 0
0.011837239 0.010473834 0
0.01183541 0.0104759 0
0.011835409 0.010475899 0
0.011839065 0.010471766 0
0.011835408 0.010475898 0
0.011835408 0.010475897 0
0.011837236 0.010473832 0
44.729752 -39.54303 1.4382014
0.011840891 0.010469698 0
44.729866 -39.529221 -1.5213795
30.025066 -26.545908 -1.9950701
20.328562 -17.959902 -2.0204108
14.314479 -12.635928 -1.8988845
11.117064 -9.8087721 -1.8358868
9.1500797 -8.0695648 -1.8121414
7.7835708 -6.8588805 -1.7972267
6.765419 -5.9610467 -1.7850137
6.0434017 -5.3207636 -1.792003
5.4327087 -4.7792935 -1.7901794
4.915658 -4.3224387 -1.7815936
4.4942665 -3.9514992 -1.7743441
4.1445045 -3.6410644 -1.7737807
3.8255899 -3.359278 -1.7632838
0.011848209 0.01046144 0
0.011844558 0.010465577 0
0.011776439 0.010542169 0
0.011776437 0.010542168 0
0.011774596 0.010544222 0
0.011774595 0.010544221 0
0.011770912 0.010548329 0
0.011770912 0.010548328 0
0.011772751 0.010546273 0
0.01177275 0.010546272 0
0.011770909 0.010548325 0
0.011770908 0.010548324 0
0.011774588 0.010544214 0
0.011770907 0.010548323 0
0.011770906 0.010548323 0
0.011772747 0.010546268 0
44.361031 -39.704556 1.4341555
0.011776427 0.010542158 0
29.943533 -26.784163 -1.0239011
29.854795 -26.723495 -1.9946226
20.209679 -18.076834 -2.0195937
14.229135 -12.71674 -1.8978949
11.052843 -9.8733454 -1.8352722
9.0958433 -8.1214523 -1.8112597
7.745616 -6.9103074 -1.798251
6.7212782 -5.9957581 -1.7830714
5.9996014 -5.347836 -1.7887437
5.405323 -4.8143344 -1.7909001
4.8730941 -4.3382215 -1.7758143
4.4840961 -3.9916422 -1.7800311
4.1325998 -3.6758013 -1.7783736
0.011780117 0.010538056 0
0.011783795 0.010533945 0
0.01178012 0.010538059 0
0.011711531 0.010614232 0
0.01171153 0.01061423 0
0.011709676 0.010616273 0
0.011709675 0.010616272 0
0.011705968 0.010620357 0
0.011705966 0.010620357 0
0.011707818 0.010618312 0
0.011707817 0.010618311 0
0.011705964 0.010620354 0
0.011705963 0.010620353 0
0.011709669 0.010616265 0
0.011705962 0.010620352 0
0.011705961 0.010620352 0
0.011707814 0.010618308 0
43.923882 -39.801273 1.4278939
0.01171152 0.01061422 0
29.754051 -26.945089 -1.0230603
29.69309 -26.908716 -1.9948215
20.084953 -18.188295 -2.0182567
14.138174 -12.792304 -1.8962123
10.988248 -9.9375019 -1.8346577
9.0420456 -8.173645 -1.8105251
7.7051306 -6.9595437 -1.7987632
6.6951361 -6.0466228 -1.7859849
5.9426742 -5.3627763 -1.7815731
5.3518085 -4.8257623 -1.7829726
4.8512607 -4.3724298 -1.7776532
4.4345226 -3.996407 -1.7700789
0.011715233 0.01061014 0
3.7915254 -3.4126575 -1.766885
3.553551 -3.1948819 -1.7718065
3.2826493 -2.9517827 -1.746349
0.011646183 0.010685895 0
0.011646182 0.010685893 0
0.011644315 0.010687924 0
0.011644314 0.010687923 0
0.011640581 0.010691986 0
0.01164058 0.010691985 0
0.011642445 0.010689952 0
0.011642444 0.010689951 0
0.011640578 0.010691983 0
0.011640577 0.010691982 0
0.011644308 0.010687917 0
0.011640576 0.010691981 0
0.011640576 0.01069198 0
0.011642441 0.010689948 0
0.011644307 0.010687916 0
0.011646172 0.010685883 0
30.603054 -28.058336 -1.0581704
29.540535 -27.102419 -1.9957165
19.977253 -18.315096 -2.0187023
14.054887 -12.874633 -1.8956184
10.925472 -10.003252 -1.8344119
8.9915934 -8.2288284 -1.8105251
7.6512604 -6.9965568 -1.7962023
6.6736798 -6.1020365 -1.790258
5.9030523 -5.3930569 -1.7796174
5.3412852 -4.8760781 -1.7894586
4.8327446 -4.4097953 -1.7808055
4.4203854 -4.0331182 -1.7743441
0.01164991 0.010681826 0
3.7766521 -3.4414611 -1.7698315
0.01165364 0.010677761 0
3.267087 -2.9742391 -1.7478207
0.011580396 0.010757155 0
0.011580396 0.010757154 0
0.011578516 0.010759174 0
0.011578515 0.010759172 0
0.011574757 0.010763212 0
0.011574756 0.010763211 0
0.011576634 0.01076119 0
0.011576633 0.010761189 0
0.011574754 0.010763208 0
0.011574753 0.010763207 0
50.524307 -46.92754 8.4299164
0.011574752 0.010763207 0
0.011574752 0.010763207 0
0.011576629 0.010761186 0
0.011578508 0.010759165 0
0.011580385 0.010757144 0
30.300543 -28.125019 -1.0536606
29.366966 -27.276903 -1.9952691
19.85779 -18.431076 -2.0180337
13.957267 -12.943556 -1.8931441
10.863757 -10.069958 -1.8344119
8.9386272 -8.281682 -1.8100842
7.6015573 -7.0371947 -1.7946658
6.6309505 -6.1380544 -1.7888983
5.8990455 -5.456265 -1.7885264
5.3068662 -4.9046545 -1.7880173
4.8033428 -4.4372535 -1.7800174
4.3891015 -4.0541511 -1.771785
4.0415258 -3.7300875 -1.7685754
3.7594886 -3.4682834 -1.7717959
3.5145044 -3.2385988 -1.7721543
3.2520523 -2.9972496 -1.7496606
0.011514174 0.010828011 0
0.011514172 0.010828009 0
0.011512281 0.010830018 0
0.01151228 0.010830016 0
0.011508497 0.010834033 0
0.011508496 0.010834032 0
0.011510386 0.010832022 0
0.011510385 0.010832021 0
0.011508494 0.010834029 0
0.011508494 0.010834029 0
50.120327 -47.128384 8.4106216
0.011508492 0.010834028 0
0.011508492 0.010834027 0
0.011510382 0.010832018 0
55.3741 -52.070801 1.831095
0.011514163 0.010828 0
28.119503 -26.42215 -0.98341489
29.187277 -27.445488 -1.9944735
19.754362 -18.561998 -2.0190737
13.858604 -13.011086 -1.8905709
10.800909 -10.135605 -1.834289
8.8882322 -8.3369083 -1.8102312
7.5731788 -7.0977354 -1.798251
6.6144695 -6.1986437 -1.7947254
5.8461213 -5.4741645 -1.7826595
5.277247 -4.9376473 -1.7882576
4.7611284 -4.4526243 -1.7745008
4.3549304 -4.0723271 -1.7680885
4.0267549 -3.7624965 -1.7722497
3.7338736 -3.4872613 -1.7698315
3.4855497 -3.2516165 -1.7676334
3.2415993 -3.0246463 -1.7540761
0.011447517 0.010898459 0
0.011447516 0.010898457 0
0.011445613 0.010900454 0
0.011445612 0.010900453 0
0.011441804 0.010904446 0
0.011441804 0.010904445 0
0.011443705 0.010902447 0
0.011443704 0.010902446 0
0.011441801 0.010904443 0
0.0114418 0.010904442 0
49.717945 -47.328098 8.3916912
0.011441799 0.010904441 0
0.011441799 0.010904441 0
0.011443702 0.010902443 0
0.011445604 0.010900445 0
0.011447506 0.010898448 0
27.908207 -26.547865 -0.98170775
27.994968 -26.649092 -1.9241177
19.606745 -18.651081 -2.0156567
13.764683 -13.082698 -1.8886904
10.738382 -10.201547 -1.834289
8.8382101 -8.3925114 -1.8105251
7.5243559 -7.1391735 -1.797056
6.5974922 -6.2592635 -1.8005525
5.8172393 -5.514502 -1.7841806
5.2340589 -4.9577498 -1.7839334
4.7650428 -4.5115409 -1.7863221
4.3443122 -4.1127105 -1.7740598
3.9972527 -3.7810867 -1.7694939
0.01145132 0.010894461 0
3.4579251 -3.2656946 -1.7638083
0.011451323 0.010894463 0
0.01138043 0.010968496 0
0.011380429 0.010968494 0
0.011378513 0.01097048 0
0.011378512 0.010970478 0
0.01137468 0.010974448 0
0.011374679 0.010974447 0
0.011376594 0.010972461 0
0.011376593 0.01097246 0
0.011374677 0.010974444 0
0.011374677 0.010974444 0
49.330009 -47.53912 8.375309
0.011374676 0.010974444 0
0.011374675 0.010974443 0
0.01137659 0.010972457 0
0.011378504 0.01097047 0
0.011380419 0.010968485 0
30.055161 -28.945341 -1.0634955
28.779001 -27.734751 -1.9897002
19.465958 -18.745977 -2.0129826
13.668253 -13.151578 -1.886513
10.675451 -10.267103 -1.834289
8.7842779 -8.4443836 -1.8100842
7.4816947 -7.1864343 -1.7973974
6.5376387 -6.2790642 -1.7947254
5.7915945 -5.5580788 -1.7867881
5.2194872 -5.0051198 -1.7894586
4.7301874 -4.5338597 -1.7836951
4.3057437 -4.1265101 -1.7686571
3.9717863 -3.8034203 -1.7685754
0.011384257 0.010964521 0
0.011388085 0.010960548 0
0.01138426 0.010964524 0
0.011312915 0.011038121 0
0.011312913 0.011038119 0
0.011310985 0.011040092 0
0.011310984 0.011040092 0
0.011307129 0.011044038 0
0.011307128 0.011044037 0
0.011309054 0.011042062 0
0.011309053 0.011042061 0
0.011307125 0.011044034 0
0.011307124 0.011044034 0
48.981846 -47.78669 8.3658438
0.011307123 0.011044032 0
0.011307123 0.011044032 0
0.01130905 0.011042058 0
0.011310977 0.011040084 0
0.011312904 0.01103811 0
28.389301 -27.67765 -1.0105246
28.53097 -27.835318 -1.9843303
19.322601 -18.837759 -2.0100856
13.568646 -13.216989 -1.8839397
10.612118 -10.332273 -1.834289
8.7349968 -8.5007477 -1.810672
7.438735 -7.2334423 -1.7977388
6.4946408 -6.3148103 -1.79356
5.7453685 -5.5817842 -1.7830942
5.2010541 -5.0491099 -1.7937828
4.709744 -4.5700684 -1.7865847
4.288444 -4.1607451 -1.7720693
3.9250653 -3.8049839 -1.7581648
3.6673005 -3.5536556 -1.7691767
0.011320618 0.011030219 0
0.011316768 0.011034172 0
0.011244973 0.011107329 0
0.011244971 0.011107328 0
0.011243031 0.01110929 0
0.01124303 0.011109288 0
0.011239151 0.011113212 0
0.01123915 0.01111321 0
0.011241089 0.011111247 0
0.011241088 0.011111246 0
0.011239147 0.011113208 0
0.011239147 0.011113207 0
48.572487 -47.972477 8.3460636
0.011239145 0.011113206 0
0.011239145 0.011113205 0
0.011241084 0.011111244 0
0.011243023 0.011109281 0
0.011244962 0.011107318 0
28.21596 -27.848375 -1.0104227
28.31049 -27.961271 -1.9808996
19.182396 -18.931995 -2.00756
13.476539 -13.289368 -1.8824551
10.544148 -10.392871 -1.8335515
8.6923895 -8.563777 -1.8127292
7.3975816 -7.2822719 -1.7985924
6.4388866 -6.3378582 -1.7888983
5.6962895 -5.6023908 -1.778531
5.1684585 -5.0794253 -1.7933023
4.691092 -4.6082311 -1.7902625
4.2579226 -4.182126 -1.7700789
3.9184468 -3.8455758 -1.7658197
3.650671 -3.5812621 -1.7717959
0.011252725 0.011099476 0
3.1837308 -3.1203594 -1.7640111
0.011176608 0.01117612 0
0.011176607 0.011176119 0
0.011174655 0.011178068 0
0.011174654 0.011178067 0
0.01117075 0.011181966 0
0.011170749 0.011181965 0
0.011172699 0.011180014 0
0.011172699 0.011180013 0
0.011170746 0.011181963 0
0.011170746 0.011181962 0
48.161289 -48.153645 8.3260412
0.011170745 0.011181961 0
0.011170744 0.011181961 0
0.011172695 0.011180011 0
0.011174646 0.01117806 0
0.011176597 0.011176109 0
25.415485 -25.392023 -0.9156661
32.314957 -32.313751 -2.2750511
19.057274 -19.040739 -2.0066686
13.385459 -13.362523 -1.8811685
10.47443 -10.451621 -1.8325683
8.6409416 -8.6182127 -1.8130232
7.3512292 -7.3259945 -1.798251
6.3872552 -6.364624 -1.7854022
5.6858325 -5.661252 -1.7861363
5.1343117 -5.10816 -1.7923415
4.6427989 -4.6170115 -1.7826444
4.2279768 -4.2039685 -1.7683728
3.8892536 -3.8640254 -1.76337
3.6318338 -3.6067963 -1.7734327
3.3815126 -3.3543105 -1.7665902
3.1650462 -3.1403549 -1.7643791
0.011107822 0.011244491 0
0.011107821 0.011244489 0
