# .PCD v0.7 - Point Cloud Data file format
VERSION 0.7
FIELDS x y z
SIZE 4 4 4
TYPE F F F
COUNT 1 1 1
WIDTH 1597
HEIGHT 1
VIEWPOINT 0 0 0 1 0 0 0
POINTS 1597
DATA ascii
6.0469069 0.48203886 -1.794533
5.5659533 0.44447017 -1.7909275
5.1940975 0.41460651 -1.7999507
4.7875695 0.38362932 -1.7756318
4.4952526 0.35848236 -1.7783617
0.015762914 -0.001163339 0
0.015762912 -0.0011633409 0
0.015763113 -0.0011605915 0
0.015763111 -0.0011605931 0
0.015763514 -0.0011550921 0
0.015763512 -0.0011550937 0
0.015763309 -0.0011578462 0
0.015763309 -0.0011578475 0
0.015763508 -0.0011550973 0
0.015763508 -0.0011550982 0
0.015763104 -0.0011606015 0
0.015763506 -0.0011550996 0
0.015763506 -0.0011551002 0
0.015763303 -0.0011578518 0
0.015763102 -0.0011606032 0
0.015762899 -0.0011633545 0
0.015762899 -0.0011633545 0
0.015763303 -0.0011578518 0
0.015763102 -0.0011606027 0
19.068703 1.4046839 -1.9001712
15.265483 1.124058 -1.8937768
12.615851 0.92855144 -1.8769448
10.718619 0.79043698 -1.8595414
9.2841358 0.68271619 -1.8401762
8.2034321 0.6044091 -1.8276389
7.3246136 0.54068995 -1.8137218
6.6301885 0.48920712 -1.8057615
6.0440297 0.44469571 -1.7928269
5.5714393 0.41071427 -1.7918462
5.1692324 0.38089573 -1.7904567
4.7963939 0.35492697 -1.7780662
4.500165 0.33129287 -1.7794656
0.015769754 -0.0010665964 0
0.015769752 -0.0010665982 0
0.015769936 -0.0010638476 0
0.015769934 -0.0010638493 0
0.015770303 -0.0010583459 0
0.015770301 -0.0010583474 0
0.015770115 -0.0010611012 0
0.015770115 -0.0010611024 0
0.015770297 -0.001058351 0
0.015770297 -0.0010583519 0
0.015769927 -0.0010638577 0
0.015770296 -0.0010583535 0
0.015770296 -0.0010583539 0
0.015770109 -0.0010611068 0
0.015769925 -0.0010638594 0
0.015769739 -0.0010666118 0
0.015769739 -0.0010666118 0
23.43079 1.5740461 -1.1683031
0.015769925 -0.0010638589 0
19.073006 1.2875791 -1.8997753
15.200815 1.0257424 -1.8849274
12.648959 0.85318649 -1.8810593
10.727214 0.72511393 -1.8602244
9.2636967 0.62427592 -1.8353204
8.1894712 0.55306745 -1.8237276
7.3258705 0.49579856 -1.8132412
6.6147895 0.44746608 -1.8007703
6.059094 0.40863833 -1.7965235
5.5643711 0.37606868 -1.7887841
5.1686583 0.34917194 -1.7894745
4.8059793 0.32619485 -1.7808481
4.5067663 0.30418286 -1.7813053
0.015775999 -0.00096981355 0
0.015775997 -0.00096981542 0
0.015776165 -0.00096706371 0
0.015776163 -0.0009670654 0
0.015776498 -0.00096155988 0
0.015776496 -0.00096156134 0
0.015776327 -0.00096431619 0
0.015776327 -0.00096431741 0
0.015776493 -0.00096156495 0
0.015776493 -0.00096156588 0
0.015776156 -0.00096707378 0
0.015776491 -0.00096156739 0
0.015776491 -0.00096156792 0
0.015776321 -0.00096432184 0
0.015776154 -0.00096707552 0
0.015775984 -0.0009698291 0
0.015775984 -0.00096982904 0
23.373226 1.4263598 -1.1649718
0.015776154 -0.00096707494 0
19.079567 1.1706575 -1.8996763
15.26825 0.93642056 -1.8925477
12.615465 0.77338505 -1.8753284
10.72459 0.65904856 -1.8590293
9.2536583 0.56677425 -1.8326011
8.1956463 0.50318104 -1.8243796
7.3094106 0.44983435 -1.8084368
6.626091 0.4075993 -1.8031346
6.0653276 0.37188217 -1.7976608
5.5694375 0.34228897 -1.7897028
5.1792045 0.31816921 -1.792421
4.7994814 0.29636979 -1.7777183
4.5113449 0.27688974 -1.7824092
0.015781652 -0.00087299425 0
0.01578165 -0.00087299611 0
0.015781801 -0.00087024341 0
0.015781799 -0.00087024504 0
0.015782099 -0.00086473761 0
0.015782099 -0.00086473906 0
0.015781946 -0.00086749491 0
0.015781945 -0.00086749613 0
0.015782095 -0.00086474267 0
0.015782094 -0.00086474366 0
0.01578179 -0.00087025348 0
0.015782092 -0.00086474512 0
0.015782092 -0.00086474564 0
0.015781941 -0.00086750055 0
0.015781788 -0.00087025523 0
0.015781637 -0.00087300979 0
0.015781637 -0.00087300973 0
23.34864 1.2813027 -1.163331
25.497391 1.4038374 -1.9009645
19.077461 1.0532645 -1.8987856
15.271739 0.8428027 -1.8923018
12.629861 0.6967032 -1.8767978
10.746153 0.59440732 -1.8621023
9.2559938 0.51012367 -1.8324069
8.1722775 0.45161781 -1.8185127
7.34306 0.40689582 -1.816124
6.6255889 0.36696744 -1.8023465
6.0569777 0.33426845 -1.794533
5.5723953 0.3083556 -1.7900089
5.1867318 0.28689283 -1.7943852
4.8040299 0.26726604 -1.7787616
4.5250401 0.25006869 -1.7871927
0.015786709 -0.00077614206 0
0.015786707 -0.00077614392 0
0.015786842 -0.00077339035 0
0.01578684 -0.00077339198 0
0.015787108 -0.0007678828 0
0.015787106 -0.00076788425 0
0.01578697 -0.00077064097 0
0.015786968 -0.00077064219 0
0.015787102 -0.00076788786 0
0.0157871 -0.00076788879 0
0.015786832 -0.00077340042 0
0.0157871 -0.00076789031 0
0.015787099 -0.00076789083 0
0.015786964 -0.00077064661 0
0.01578683 -0.00077340216 0
0.015786694 -0.0007761576 0
0.015786694 -0.00077615754 0
23.356073 1.1382077 -1.163331
25.521473 1.2483361 -1.902153
19.080593 0.93623471 -1.8984886
15.261765 0.74854416 -1.8904582
12.638848 0.61963117 -1.8775326
10.689577 0.52569163 -1.851688
9.3108883 0.45606619 -1.8427013
8.1846542 0.40213966 -1.8206856
7.3337951 0.36144978 -1.8132412
6.6489282 0.32754979 -1.8081257
6.0742464 0.29804659 -1.7990825
5.5751438 0.27439895 -1.7903152
5.1997304 0.25581649 -1.7983139
4.8112087 0.23825775 -1.7808481
4.5302153 0.2226764 -1.7886646
0.015791174 -0.00067926064 0
0.015791172 -0.00067926251 0
0.015791288 -0.00067650818 0
0.015791286 -0.00067650981 0
0.01579152 -0.00067099906 0
0.015791519 -0.00067100051 0
0.015791399 -0.00067375804 0
0.015791399 -0.00067375926 0
0.015791515 -0.00067100412 0
0.015791515 -0.00067100511 0
0.015791278 -0.00067651825 0
0.015791513 -0.00067100656 0
0.015791513 -0.00067100709 0
0.015791394 -0.00067376363 0
0.015791276 -0.00067651999 0
0.015791157 -0.00067927619 0
0.015791159 -0.00067927613 0
23.377596 0.99570823 -1.1640768
25.55855 1.0931895 -1.9043815
19.085989 0.81933451 -1.8984886
15.275003 0.65546304 -1.8915644
12.648352 0.54251766 -1.8784143
10.730018 0.4619005 -1.8581756
9.3047009 0.39874151 -1.8409532
8.1908779 0.35227415 -1.8215548
7.3048506 0.31529206 -1.8055539
6.6729937 0.28790143 -1.8141677
6.0711813 0.26075706 -1.7976608
5.5805368 0.24054399 -1.7915399
5.1842194 0.22336386 -1.792421
4.8154001 0.20904878 -1.7818913
4.5342927 0.19518988 -1.7897685
0.015795043 -0.00058235368 0
0.015795041 -0.00058235554 0
0.01579514 -0.00057960051 0
0.01579514 -0.00057960214 0
0.015795339 -0.00057409005 0
0.015795337 -0.00057409151 0
0.015795235 -0.00057684968 0
0.015795235 -0.0005768509 0
0.015795333 -0.00057409517 0
0.015795333 -0.00057409611 0
0.01579513 -0.00057961058 0
0.015795331 -0.00057409756 0
0.015795331 -0.00057409809 0
0.015795229 -0.00057685532 0
0.015795128 -0.00057961233 0
0.015795028 -0.00058236922 0
0.015795028 -0.00058236916 0
23.371296 0.85200381 -1.1634802
25.58671 0.93734258 -1.9060158
19.093649 0.70251334 -1.8987856
15.270812 0.56162643 -1.8905811
12.661336 0.46545672 -1.8798836
10.716904 0.3956641 -1.8554441
9.3599157 0.34378612 -1.8514419
8.1948452 0.30227527 -1.8219893
7.3231468 0.27127171 -1.8096378
6.6794643 0.24732442 -1.8154812
6.0927944 0.22443888 -1.8036321
5.5885749 0.20673946 -1.7936833
5.1826682 0.19163828 -1.7914388
4.8025465 0.17916411 -1.7766751
4.537272 0.16762723 -1.7905045
0.015798317 -0.00048542474 0
0.015798315 -0.00048542663 0
0.015798397 -0.00048267102 0
0.015798395 -0.00048267268 0
0.015798563 -0.00047715945 0
0.015798561 -0.00047716094 0
0.015798476 -0.00047991966 0
0.015798476 -0.00047992088 0
0.015798558 -0.00047716455 0
0.015798556 -0.00047716548 0
0.015798388 -0.00048268109 0
0.015798554 -0.00047716696 0
0.015798554 -0.00047716749 0
0.01579847 -0.00047992528 0
0.015798386 -0.00048268287 0
0.015798302 -0.00048544031 0
0.015798302 -0.00048544025 0
23.377089 0.70880836 -1.1635299
25.608932 0.78103912 -1.9072785
19.10059 0.58562917 -1.8990825
15.271002 0.46801838 -1.8902124
12.660006 0.38783184 -1.8792959
10.711259 0.32984945 -1.8540782
9.3147926 0.28509673 -1.8421186
8.2141142 0.25272319 -1.8259006
7.3770742 0.22815382 -1.8226101
6.6548238 0.20572039 -1.8083885
6.078732 0.18677026 -1.7990825
5.5868912 0.17254989 -1.7927647
5.1941423 0.16035092 -1.79504
4.8148084 0.15023991 -1.7808481
4.5410104 0.14006433 -1.7916083
0.015800998 -0.00038847758 0
0.015800996 -0.00038847944 0
0.015801061 -0.0003857234 0
0.015801059 -0.00038572506 0
0.015801191 -0.0003802109 0
0.015801189 -0.00038021235 0
0.015801122 -0.00038297154 0
0.015801121 -0.00038297276 0
0.015801186 -0.00038021596 0
0.015801186 -0.00038021692 0
0.01580105 -0.00038573347 0
0.015801184 -0.00038021841 0
0.015801184 -0.0003802189 0
0.015801117 -0.00038297716 0
0.01580105 -0.00038573524 0
0.015800981 -0.00038849315 0
0.015800981 -0.00038849306 0
23.392986 0.56584001 -1.1641265
0.01580105 -0.0003857346 0
19.123726 0.46910188 -1.9010619
15.263671 0.37425858 -1.8889834
12.661164 0.31031379 -1.879149
10.717027 0.26441157 -1.8547611
9.3006821 0.22774523 -1.8390108
8.2077093 0.20231828 -1.8241622
7.3356428 0.1820145 -1.8120401
6.66079 0.16519734 -1.8097019
6.0711436 0.14944877 -1.7965235
5.6021256 0.13881572 -1.7973576
0.015800858 -0.00039399503 0
4.8100219 0.12074575 -1.7787616
4.5362129 0.11225346 -1.7894006
0.015803082 -0.00029151575 0
0.01580308 -0.00029151764 0
0.015803128 -0.00028876122 0
0.015803127 -0.00028876288 0
0.015803225 -0.00028324799 0
0.015803223 -0.00028324948 0
0.015803173 -0.00028600902 0
0.015803171 -0.00028601024 0
0.01580322 -0.00028325309 0
0.01580322 -0.00028325405 0
0.015803119 -0.00028877129 0
0.015803218 -0.0002832555 0
0.015803218 -0.00028325603 0
0.015803168 -0.00028601463 0
0.015803117 -0.00028877307 0
0.015803065 -0.00029153132 0
0.015803067 -0.00029153127 0
23.532831 0.4249604 -1.1709384
0.015803117 -0.00028877245 0
19.149132 0.35236773 -1.9033383
15.29446 0.28131968 -1.8925477
12.650967 0.23259568 -1.8773856
10.713527 0.19875041 -1.8539075
9.3323135 0.17142735 -1.8450321
8.2371035 0.15267341 -1.8304636
7.3249798 0.13697559 -1.8091574
6.6317768 0.12395664 -1.8015584
6.0623655 0.11220967 -1.79368
5.5981178 0.10454364 -1.7958267
5.1806154 0.096702583 -1.7898018
4.8078647 0.091369838 -1.7777183
4.5340323 0.084559195 -1.7882966
0.015804572 -0.00019454297 0
0.01580457 -0.00019454486 0
0.015804602 -0.00019178817 0
0.0158046 -0.00019178983 0
0.015804663 -0.00018627445 0
0.015804663 -0.00018627592 0
0.015804628 -0.00018903572 0
0.015804628 -0.00018903693 0
0.01580466 -0.00018627953 0
0.015804658 -0.00018628048 0
0.015804591 -0.00019179824 0
0.015804656 -0.00018628196 0
0.015804656 -0.00018628249 0
0.015804622 -0.00018904133 0
0.015804589 -0.00019180002 0
0.015804555 -0.00019455855 0
0.015804555 -0.00019455847 0
23.471083 0.27998811 -1.1677562
23.693464 0.28677487 -1.763839
19.173822 0.23533954 -1.9056146
15.315749 0.18790728 -1.8950058
12.636334 0.1549658 -1.8750345
10.75987 0.13376874 -1.8617609
9.3675241 0.11477813 -1.8518304
8.2398405 0.1023469 -1.8308983
7.3140383 0.092074439 -1.8062747
6.6507478 0.083688192 -1.8065495
6.0706129 0.075299144 -1.7959547
5.6043692 0.070458405 -1.7976638
5.1830049 0.065130927 -1.7904567
4.8139639 0.062134631 -1.7798048
4.5344691 0.056931239 -1.7882966
0.015805466 -9.7562865e-05 0
0.015805464 -9.7564749e-05 0
0.015805479 -9.4807911e-05 0
0.015805477 -9.4809562e-05 0
0.015805507 -8.9293892e-05 0
0.015805507 -8.9295354e-05 0
0.01580549 -9.2055307e-05 0
0.015805488 -9.2056522e-05 0
0.015805503 -8.929897e-05 0
0.015805501 -8.9299923e-05 0
0.01580547 -9.481798e-05 0
0.0158055 -8.93014e-05 0
0.0158055 -8.9301917e-05 0
0.015805485 -9.2060916e-05 0
124.20255 0.74294901 2.9917374
0.015805451 -9.7578442e-05 0
0.015805451 -9.7578362e-05 0
0.015805485 -9.2060902e-05 0
0.015805468 -9.4819137e-05 0
19.219687 0.11815642 -1.9100684
15.321578 0.094152577 -1.8956203
12.639028 0.077633925 -1.8753284
10.731916 0.067757912 -1.8568099
9.3091984 0.057129446 -1.8401762
8.2178659 0.051838048 -1.8259006
7.3397064 0.047552783 -1.8125206
6.6617517 0.043141406 -1.8094392
6.0680866 0.038224883 -1.7951016
5.5942268 0.036195133 -1.7942957
5.1974821 0.033613559 -1.7953674
4.8189445 0.032821625 -1.7815436
4.5375252 0.029319288 -1.7894006
0.015805766 -5.7908534e-07 0
0.015805764 -5.8096668e-07 0
0.015805762 2.1759238e-06 0
0.01580576 2.1742676e-06 0
0.015805757 7.6900333e-06 0
0.015805755 7.6885708e-06 0
0.015805755 4.928575e-06 0
0.015805755 4.9273622e-06 0
0.015805751 7.6849547e-06 0
0.015805751 7.6840061e-06 0
0.015805751 2.1658507e-06 0
0.015805749 7.6825272e-06 0
0.015805749 7.6820097e-06 0
0.015805749 4.9229657e-06 0
124.37173 -0.018989014 2.9957592
0.015805751 -5.9466299e-07 0
0.015805751 -5.9458193e-07 0
0.015805749 4.9229807e-06 0
25.727573 -0.0039244415 -1.9152268
19.231993 0.00041863872 -1.9112561
15.352633 0.0003340049 -1.8994305
12.633332 0.0002746798 -1.8744467
10.710454 0.0020965396 -1.8530538
9.3289938 0.00020259235 -1.8440609
8.2258396 0.001608689 -1.8276389
7.3650999 0.0027196198 -1.8187665
6.6850495 0.0024674025 -1.8157438
6.0960112 0.0011905025 -1.8033478
5.6029124 0.00206606 -1.7970514
5.1890879 0.0019125815 -1.792421
4.8246822 0.0034505294 -1.7836301
4.532042 0.0016688984 -1.7871927
0.01580547 9.6404721e-05 0
0.015805468 9.6402837e-05 0
0.015805449 9.9159675e-05 0
0.015805447 9.9158016e-05 0
0.01580541 0.00010467367 0
0.015805408 0.00010467221 0
0.015805425 0.00010191227 0
0.015805425 0.00010191106 0
0.015805406 0.00010466859 0
0.015805405 0.00010466764 0
0.01580544 9.9149598e-05 0
0.015805403 0.00010466616 0
0.015805403 0.00010466565 0
0.01580542 0.00010190666 0
124.16533 -0.78064275 2.9908464
0.015805455 9.6389143e-05 0
0.015805455 9.6389223e-05 0
0.01580542 0.00010190668 0
0.015805438 9.9148448e-05 0
19.249544 -0.11750221 -1.9130375
15.372194 -0.093795374 -1.9018887
12.656836 -0.077193178 -1.8779734
10.740809 -0.063609064 -1.8583463
9.3866949 -0.057198938 -1.8555207
8.2188616 -0.048629593 -1.8261179
7.3940988 -0.042445753 -1.8259734
6.6675715 -0.038257245 -1.8110154
6.0863171 -0.035963032 -1.8005043
5.6018682 -0.032113351 -1.7967452
5.1833329 -0.029700449 -1.7904567
4.8236752 -0.025954185 -1.7832824
4.5338264 -0.025955973 -1.7879287
0.015804579 0.0001933849 0
0.015804578 0.00019338301 0
0.015804542 0.00019613969 0
0.01580454 0.00019613803 0
0.01580447 0.00020165337 0
0.015804468 0.0002016519 0
0.015804501 0.00019889213 0
0.015804501 0.00019889092 0
0.015804464 0.00020164829 0
0.015804464 0.00020164734 0
0.015804533 0.00019612962 0
0.015804462 0.00020164586 0
77.022148 -0.98350227 5.6554537
76.950043 -0.96915424 3.7360897
0.015804531 0.00019612785 0
0.015804565 0.00019336931 0
0.015804565 0.0001933694 0
18.288723 -0.23003554 -0.90975195
0.015804531 0.00019612846 0
19.255424 -0.23550433 -1.9137304
15.356443 -0.18773931 -1.9000452
12.646232 -0.15453747 -1.8765039
10.719526 -0.12906842 -1.8547611
9.3292751 -0.11390262 -1.8442552
8.250617 -0.099253669 -1.8332884
7.3771973 -0.087423943 -1.8218895
6.655632 -0.078836218 -1.807863
6.0802283 -0.073043868 -1.7987982
5.5958529 -0.066223226 -1.794908
5.186831 -0.061355241 -1.7917662
4.8262367 -0.05538974 -1.7843257
0.015804648 0.00018786991 0
0.015803095 0.0002903578 0
0.015803093 0.00029035591 0
0.015803039 0.00029311233 0
0.015803037 0.00029311067 0
0.015802933 0.00029862547 0
0.015802931 0.00029862401 0
0.015802981 0.00029586451 0
0.015802981 0.00029586328 0
0.015802927 0.00029862041 0
0.015802927 0.00029861944 0
0.01580303 0.00029310226 0
0.015802925 0.00029861796 0
0.015802925 0.00029861744 0
77.016548 -1.4424833 3.7396786
0.015803028 0.00029310049 0
0.015803078 0.0002903422 0
0.015803078 0.00029034229 0
17.436169 -0.32611319 -0.86738938
18.564213 -0.34401393 -1.3818781
19.264559 -0.35365626 -1.9148191
15.352023 -0.28171244 -1.8996763
12.6668 -0.23233651 -1.8797368
10.768773 -0.1955609 -1.8634682
9.323494 -0.17085971 -1.843284
8.2225237 -0.14918497 -1.8272043
7.3901072 -0.13273908 -1.8252527
6.6665974 -0.1196878 -1.8110154
6.0854149 -0.11026087 -1.8005043
5.5782061 -0.10005448 -1.7893965
5.1910787 -0.09307114 -1.793403
4.8183041 -0.084675312 -1.7815436
4.5368829 -0.08127021 -1.7894006
0.015801014 0.00038731974 0
0.015801013 0.00038731788 0
0.015800942 0.00039007392 0
0.01580094 0.00039007227 0
0.015800802 0.00039558634 0
0.0158008 0.00039558488 0
0.015800867 0.00039282572 0
0.015800867 0.00039282453 0
0.015800796 0.00039558124 0
0.015800796 0.00039558031 0
0.015800932 0.00039006385 0
0.015800795 0.00039557883 0
0.015800795 0.0003955783 0
76.982277 -1.9142307 3.7385147
124.27383 -3.0689611 2.9943142
0.015800998 0.00038730417 0
18.172443 -0.44493687 -0.46290338
17.421854 -0.43260139 -0.86679274
17.779156 -0.43839023 -1.3235663
17.96979 -0.43996644 -1.7862539
15.379766 -0.37644145 -1.9033636
12.660189 -0.30973896 -1.879002
10.70334 -0.25988007 -1.852371
9.3654156 -0.22892874 -1.8518304
8.2273054 -0.19958326 -1.828508
7.3678007 -0.17737132 -1.8199676
6.7004595 -0.16123666 -1.8204724
6.0855789 -0.1474276 -1.8007886
5.6126966 -0.13493724 -1.8007257
5.1970186 -0.12488718 -1.7956947
4.8214397 -0.11413368 -1.7829347
4.5409436 -0.10902491 -1.7912403
0.015798338 0.00048426713 0
0.015798336 0.00048426524 0
0.01579825 0.00048702082 0
0.015798248 0.00048701919 0
0.015798075 0.00049253227 0
0.015798075 0.00049253082 0
0.015798159 0.00048977218 0
0.015798157 0.00048977096 0
0.015798071 0.00049252721 0
0.01579807 0.00049252628 0
0.015798239 0.00048701075 0
0.015798068 0.00049252482 0
0.015798068 0.0004925243 0
76.990044 -2.3870053 3.7395332
0.015798239 0.00048700901 0
0.015798323 0.00048425156 0
18.118406 -0.55467582 -0.46160394
17.427851 -0.53957647 -0.86724019
17.802042 -0.54807818 -1.3254976
0.015798325 0.00048425279 0
15.359306 -0.47006136 -1.9011513
12.674852 -0.38773614 -1.8815001
10.739948 -0.32652691 -1.8590293
9.3020592 -0.28430128 -1.8395935
8.2122612 -0.24945089 -1.825466
7.374331 -0.22261737 -1.8218895
6.6646199 -0.20110033 -1.8110154
6.0701809 -0.18413302 -1.7965235
5.6050973 -0.16897771 -1.7985823
5.2027607 -0.15677966 -1.7979864
4.8197069 -0.14349332 -1.7825869
4.5439019 -0.13680436 -1.7927122
0.015795069 0.00058119628 0
0.015795067 0.00058119441 0
0.015794963 0.00058394938 0
0.015794961 0.00058394775 0
0.015794754 0.00058945973 0
0.015794754 0.00058945827 0
0.015794855 0.00058670016 0
0.015794853 0.00058669894 0
0.01579475 0.00058945466 0
0.015794748 0.00058945367 0
0.015794953 0.00058393937 0
0.015794747 0.00058945222 0
0.015794747 0.00058945169 0
76.971947 -2.8590944 3.7394361
124.24779 -4.5941496 2.9948201
124.31956 -4.5750818 -0.10854899
18.207563 -0.66906387 -0.46397349
17.414225 -0.64593685 -0.86674297
17.726585 -0.65445155 -1.3201493
17.978939 -0.66064811 -1.7878375
15.351169 -0.56391901 -1.9005368
12.669264 -0.46519724 -1.8810593
10.745614 -0.39251459 -1.8603951
9.3413057 -0.34269398 -1.8477514
8.2349567 -0.3005352 -1.8308983
7.3495388 -0.26681849 -1.816124
6.7085738 -0.24344839 -1.823362
6.0890503 -0.22191872 -1.8024948
5.620122 -0.20376256 -1.8037877
5.1941409 -0.18823095 -1.7953674
4.811234 -0.17259923 -1.7798048
4.5559802 -0.1649631 -1.7978636
0.015791204 0.00067810353 0
0.015791202 0.00067810167 0
0.015791081 0.000680856 0
0.015791079 0.00068085437 0
0.015790839 0.00068636495 0
0.015790837 0.00068636349 0
0.015790956 0.00068360608 0
0.015790954 0.00068360486 0
0.015790833 0.00068635988 0
0.015790833 0.00068635895 0
0.015791072 0.00068084593 0
0.015790831 0.00068635744 0
0.015790831 0.00068635691 0
76.9739 -3.3320453 3.7404547
124.30415 -5.3599868 2.9969153
0.015791187 0.00067808799 0
0.015791187 0.00067808805 0
17.402943 -0.75228006 -0.86639494
18.662746 -0.80357903 -1.390272
19.31568 -0.8283686 -1.9213513
0.015791189 0.00067808985 0
12.660234 -0.54247707 -1.8801776
10.757763 -0.4588789 -1.8629559
9.3164787 -0.39884257 -1.843284
8.2612314 -0.35207435 -1.8371997
7.3506656 -0.31183952 -1.8168447
6.7136946 -0.28470051 -1.8252009
6.0942717 -0.25936925 -1.8044852
5.6235142 -0.23825192 -1.8053186
5.2051535 -0.2204271 -1.7996234
4.8072672 -0.20180456 -1.7787616
0.01579144 0.00067259319 0
0.015786745 0.0007749853 0
0.015786743 0.00077498337 0
0.015786605 0.00077773695 0
0.015786603 0.00077773532 0
0.015786329 0.00078324432 0
0.015786327 0.00078324287 0
0.015786463 0.00078048627 0
0.015786462 0.00078048505 0
0.015786324 0.00078323926 0
0.015786324 0.00078323833 0
0.015786594 0.00077772688 0
0.015786322 0.00078323681 0
0.015786322 0.00078323635 0
77.017838 -3.807348 3.7436557
124.32882 -6.1253605 2.9983602
0.015786728 0.0007749697 0
35.07814 -1.7209612 -0.89472228
18.246901 -0.9008373 -0.90870786
25.976274 -1.2785535 -1.9361001
19.318174 -0.94706845 -1.9221431
0.01578673 0.00077497162 0
12.657647 -0.62000334 -1.8803246
10.752768 -0.52458858 -1.8626145
9.3843918 -0.45927018 -1.8572688
8.2764568 -0.40342259 -1.8411109
7.3456969 -0.35660088 -1.816124
6.7262692 -0.32640061 -1.8291413
6.0724483 -0.29558039 -1.7985139
5.6238399 -0.27265158 -1.805931
5.1942573 -0.25170726 -1.7963495
4.8124857 -0.23142113 -1.7811959
4.5610285 -0.22083414 -1.8008074
0.015781689 0.00087183784 0
0.015781688 0.00087183597 0
0.015781535 0.00087458862 0
0.015781533 0.00087458699 0
0.015781224 0.00088009425 0
0.015781224 0.00088009279 0
0.015781375 0.00087733706 0
0.015781375 0.00087733584 0
0.01578122 0.00088008918 0
0.015781218 0.00088008825 0
0.015781524 0.00087457855 0
0.015781216 0.00088008674 0
0.015781216 0.00088008621 0
76.966095 -4.2781577 3.7423463
0.015781522 0.0008745768 0
0.015781675 0.0008718223 0
35.06591 -1.9359152 -0.89469683
0.015781369 0.00087733148 0
25.96793 -1.437723 -1.9361001
19.311991 -1.0653909 -1.9221431
15.339157 -0.84586161 -1.9006597
12.67236 -0.69850069 -1.8831165
10.78082 -0.59209687 -1.8680778
9.3245783 -0.51351023 -1.8460033
8.2455521 -0.45244777 -1.8348095
7.3821316 -0.40360156 -1.8257331
6.711606 -0.36678466 -1.8257263
6.0877419 -0.33359006 -1.8036321
5.6106453 -0.30633366 -1.8022567
5.1944923 -0.28348374 -1.7970043
4.8212638 -0.26131374 -1.7850212
4.563292 -0.2488261 -1.8022792
0.015776042 0.00096865755 0
0.01577604 0.00096865569 0
0.015775869 0.0009714074 0
0.015775867 0.00097140571 0
0.015775526 0.00097691105 0
0.015775524 0.00097690953 0
0.015775694 0.0009741548 0
0.015775692 0.00097415358 0
0.01577552 0.00097690593 0
0.01577552 0.00097690499 0
0.015775859 0.00097139733 0
0.015775518 0.00097690348 0
0.015775518 0.00097690301 0
77.056023 -4.7574043 3.7480693
0.015775857 0.00097139558 0
114.79548 -7.0481639 -0.10035293
0.015776027 0.00096864207 0
0.015775688 0.00097414921 0
0.015775857 0.00097139616 0
19.304087 -1.1836123 -1.922044
15.316828 -0.93873709 -1.8985702
12.67671 -0.77659571 -1.884439
10.776973 -0.65804189 -1.8680778
9.3369074 -0.57148355 -1.8491111
8.2250729 -0.50176537 -1.8308983
7.3872566 -0.44916952 -1.827655
6.7101812 -0.40782452 -1.8259889
6.0903544 -0.3710368 -1.8050539
5.6143508 -0.34090862 -1.8040938
5.1926446 -0.31515753 -1.7970043
4.8139439 -0.29035693 -1.7829347
0.015776381 0.0009631525 0
0.0157698 0.0010654408 0
0.015769798 0.001065439 0
0.01576961 0.0010681895 0
0.015769608 0.0010681879 0
0.015769234 0.0010736909 0
0.015769232 0.0010736895 0
0.015769418 0.0010709359 0
0.015769416 0.0010709347 0
0.015769228 0.0010736859 0
0.015769226 0.001073685 0
0.015769601 0.0010681795 0
0.015769226 0.0010736835 0
0.015769225 0.001073683 0
77.075195 -5.2333126 3.7504945
0.015769599 0.0010681777 0
114.66624 -7.7465458 -0.10027962
34.988625 -2.3622575 -0.89339739
0.015769413 0.0010709303 0
0.015769599 0.0010681783 0
0.015769785 0.0010654265 0
15.206801 -1.0254824 -1.8856648
12.683537 -0.85497063 -1.8862025
10.771738 -0.72389591 -1.8679069
9.3586597 -0.63028896 -1.8541611
8.2861042 -0.55636275 -1.8452395
7.3833814 -0.4942297 -1.8274148
6.7036901 -0.44853726 -1.8249382
6.0736027 -0.40723884 -1.8007886
5.6064425 -0.37477449 -1.8022567
5.1887159 -0.34669271 -1.7963495
4.8176727 -0.32007104 -1.7850212
4.5635848 -0.3046681 -1.803751
0.015762964 0.0011621839 0
0.015762962 0.0011621821 0
0.015762758 0.0011649315 0
0.015762756 0.0011649298 0
0.015762348 0.0011704306 0
0.015762346 0.0011704291 0
0.015762549 0.0011676766 0
0.015762547 0.0011676755 0
0.015762342 0.0011704254 0
0.01576234 0.0011704245 0
0.015762748 0.0011649214 0
0.01576234 0.0011704231 0
0.015762338 0.0011704225 0
77.017708 -5.704174 3.7493305
0.015762746 0.0011649197 0
0.015762949 0.0011621685 0
35.092098 -2.5854545 -0.89642942
0.015762543 0.0011676711 0
0.015762746 0.0011649203 0
19.250374 -1.417246 -1.9182831
15.280377 -1.1244886 -1.8956203
12.699742 -0.9341861 -1.8894352
10.774941 -0.79036123 -1.8692728
9.3604727 -0.68794006 -1.8553265
8.2513704 -0.60470963 -1.8382862
7.3918142 -0.54018307 -1.8302975
6.7017608 -0.489539 -1.8252009
6.1073098 -0.4469775 -1.811594
5.5897832 -0.40792921 -1.7976638
5.200613 -0.37936744 -1.8012602
4.8258915 -0.35018346 -1.7888465
4.5643983 -0.33267465 -1.804855
0.015755536 0.0012588834 0
0.015755534 0.0012588815 0
0.015755313 0.0012616296 0
0.015755311 0.001261628 0
0.015754867 0.0012671261 0
0.015754865 0.0012671245 0
0.015755085 0.0012643734 0
0.015755083 0.0012643723 0
0.015754862 0.0012671209 0
0.015754862 0.00126712 0
0.015755301 0.0012616196 0
0.01575486 0.0012671186 0
0.01575486 0.001267118 0
0.01575508 0.0012643678 0
0.015755299 0.0012616178 0
0.015755519 0.0012588678 0
35.010788 -2.795357 -0.89477324
0.01575508 0.0012643678 0
0.015755301 0.0012616185 0
19.075649 -1.5219059 -1.9017547
15.296918 -1.2199301 -1.8985702
12.682911 -1.0110325 -1.8878188
10.779696 -0.85704988 -1.87098
9.4293995 -0.75102925 -1.8698941
8.2494364 -0.65528941 -1.8387208
7.3893137 -0.58541173 -1.8305377
6.7043877 -0.53091675 -1.826777
6.1139951 -0.48501143 -1.8144375
5.5938034 -0.44255486 -1.7998072
0.015755972 0.0012533817 0
0.015756411 0.0012478834 0
0.015755976 0.0012533854 0
0.015747514 0.0013555354 0
0.015747512 0.0013555335 0
0.015747273 0.0013582802 0
0.015747271 0.0013582786 0
0.015746795 0.0013637738 0
0.015746793 0.0013637724 0
0.015747029 0.0013610227 0
0.015747027 0.0013610214 0
0.015746789 0.0013637688 0
0.015746789 0.0013637678 0
0.015747262 0.0013582702 0
0.015746787 0.0013637664 0
0.015746787 0.0013637658 0
0.015747024 0.0013610171 0
0.01574726 0.0013582684 0
0.015747499 0.0013555199 0
35.078617 -3.0173075 -0.89696443
0.015747024 0.0013610171 0
0.015747262 0.001358269 0
18.514706 -1.5912728 -1.8467261
15.306928 -1.315106 -1.9007826
12.696163 -1.0903379 -1.8907577
10.718263 -0.9181757 -1.8612487
9.3630257 -0.80337852 -1.8576573
8.1868935 -0.70068794 -1.8256832
7.3942719 -0.63129371 -1.8326998
6.7019501 -0.57193315 -1.8270397
6.1204405 -0.52314442 -1.817281
5.5957098 -0.47708273 -1.8013381
5.1974206 -0.44293293 -1.801915
4.8212028 -0.40899131 -1.7888465
4.5673552 -0.38891038 -1.8077986
0.015738899 0.0014521363 0
0.015738897 0.0014521345 0
0.01573864 0.0014548796 0
0.01573864 0.001454878 0
0.01573813 0.0014603703 0
0.015738128 0.0014603689 0
0.015738381 0.0014576206 0
0.015738379 0.0014576194 0
0.015738124 0.0014603653 0
0.015738122 0.0014603643 0
0.015738631 0.0014548696 0
0.015738122 0.0014603628 0
0.01573812 0.0014603623 0
0.015738375 0.0014576151 0
0.015738629 0.0014548679 0
0.015738882 0.0014521208 0
0.015738882 0.001452121 0
0.015738375 0.0014576151 0
0.015738629 0.0014548685 0
15.367449 -1.4151671 -1.5333794
15.277801 -1.4068946 -1.8982015
12.674442 -1.1666629 -1.8885535
10.700637 -0.98264682 -1.8592
9.3315296 -0.85818684 -1.8524131
8.230051 -0.75510192 -1.8363305
7.3902426 -0.67645895 -1.8326998
6.6829247 -0.61143833 -1.8228366
6.0960956 -0.55856121 -1.8110253
5.5955043 -0.51147658 -1.8022567
5.1908245 -0.47427616 -1.8006055
0.015739908 0.001441148 0
0.015739406 0.0014466442 0
0.01572969 0.0015486826 0
0.015729688 0.0015486807 0
0.015729416 0.0015514244 0
0.015729414 0.0015514228 0
0.01572887 0.0015569117 0
0.015728869 0.0015569103 0
0.015729139 0.0015541636 0
0.015729139 0.0015541625 0
0.015728865 0.0015569067 0
0.015728865 0.0015569057 0
0.015729407 0.0015514144 0
0.015728863 0.0015569043 0
0.015728863 0.0015569037 0
0.015729133 0.0015541581 0
0.015729405 0.0015514125 0
0.015729675 0.0015486671 0
55.128201 -5.4253416 -1.4114629
0.015729133 0.0015541582 0
15.625508 -1.5382847 -1.1683902
15.89223 -1.5618004 -1.5867256
15.283677 -1.5018766 -1.9000452
12.661121 -1.2436352 -1.8876718
10.700272 -1.0486714 -1.8602244
9.3016644 -0.91283154 -1.8475572
8.2281599 -0.80567968 -1.8369824
7.3791723 -0.72093523 -1.8310181
6.6915131 -0.65346414 -1.8262516
6.1182971 -0.59829468 -1.8187027
5.5894008 -0.54532826 -1.8013381
5.195322 -0.50666249 -1.8032246
0.015730768 0.0015377006 0
0.015730232 0.0015431937 0
0.015719891 0.0016451706 0
0.015719889 0.0016451688 0
0.0157196 0.0016479106 0
0.015719598 0.0016479089 0
0.015719021 0.0016533945 0
0.015719019 0.0016533931 0
0.015719306 0.0016506483 0
0.015719304 0.001650647 0
0.015719015 0.0016533895 0
0.015719013 0.0016533886 0
52.702518 -5.5223031 6.4764299
0.015719013 0.0016533871 0
63.07402 -6.6319528 4.6562648
0.0157193 0.0016506427 0
0.015719587 0.0016478988 0
0.015719876 0.0016451551 0
55.163448 -5.7705913 -1.4132464
0.0157193 0.0016506427 0
15.446158 -1.6161575 -1.1556878
15.396394 -1.6082288 -1.5381302
15.283038 -1.5963639 -1.9011513
12.658152 -1.3216207 -1.8884066
10.764175 -1.121487 -1.8725165
9.3466015 -0.97500533 -1.8576573
8.2269249 -0.85636425 -1.8378516
7.3610744 -0.76459634 -1.827655
6.6921568 -0.69481772 -1.8275651
6.1144919 -0.6356315 -1.8187027
5.5859303 -0.57942086 -1.8013381
5.1836386 -0.5374555 -1.8002781
4.8370547 -0.49960557 -1.797888
4.5445762 -0.47079125 -1.8019112
0.015709499 0.0017415966 0
0.015709497 0.0017415948 0
0.015709192 0.0017443348 0
0.01570919 0.0017443332 0
0.015708577 0.0017498152 0
0.015708577 0.0017498137 0
0.01570888 0.0017470707 0
0.015708879 0.0017470694 0
0.015708573 0.0017498102 0
0.015708571 0.0017498091 0
51.133545 -5.6750193 6.2877312
50.918068 -5.6690731 5.0128722
0.015708569 0.0017498072 0
0.015708875 0.0017470651 0
0.015709179 0.0017443231 0
0.015709484 0.0017415811 0
0.015709484 0.0017415812 0
0.015708875 0.0017470651 0
15.120748 -1.6757081 -1.1320659
15.088518 -1.6694685 -1.5083394
15.036205 -1.6636684 -1.8716532
12.638969 -1.3978728 -1.8867902
10.725733 -1.1838516 -1.8670534
9.3209238 -1.0299817 -1.8537726
8.2350779 -0.90813828 -1.8408936
7.3861341 -0.8128615 -1.835102
6.7002149 -0.73705196 -1.8309802
6.0980687 -0.67157316 -1.8150061
5.6077976 -0.61631525 -1.8096054
5.1858578 -0.56968147 -1.8022424
4.837606 -0.52949351 -1.7992791
4.5295668 -0.49714655 -1.7971277
0.015698515 0.0018379571 0
0.015698513 0.0018379552 0
0.015698191 0.0018406934 0
0.015698189 0.0018406918 0
0.015697544 0.0018461699 0
0.015697543 0.0018461684 0
0.015697863 0.0018434273 0
0.015697863 0.0018434261 0
0.015697539 0.0018461648 0
48.270683 -5.6740165 7.1574697
0.015698181 0.0018406834 0
49.395706 -5.806344 4.8663688
0.015697537 0.0018461619 0
0.015697857 0.0018434217 0
0.01569818 0.0018406817 0
0.0156985 0.0018379417 0
0.0156985 0.0018379417 0
15.219245 -1.7837425 -0.76207948
15.116102 -1.7689598 -1.1325116
14.947509 -1.74655 -1.495275
15.025693 -1.7557046 -1.8716532
12.606555 -1.4724442 -1.8832635
10.723139 -1.2500204 -1.8679069
9.3085613 -1.0862771 -1.8526073
8.2206039 -0.95743775 -1.838938
7.3617029 -0.85572273 -1.8302975
6.6888366 -0.77717388 -1.8291413
6.0871463 -0.70800543 -1.8130157
5.5963244 -0.64963663 -1.8071558
5.1859975 -0.60173601 -1.8035519
4.8435574 -0.56005764 -1.8027567
4.5180979 -0.52376699 -1.7938161
0.01568694 0.0019342484 0
0.015686939 0.0019342465 0
0.0156866 0.0019369826 0
0.015686598 0.001936981 0
0.01568592 0.0019424551 0
0.015685918 0.0019424537 0
0.015686255 0.0019397145 0
0.015686255 0.0019397134 0
46.607254 -5.7683153 8.0754967
0.015685914 0.0019424491 0
0.01568659 0.0019369727 0
50.115704 -6.2028284 4.9409842
59.999657 -7.4269333 4.438601
0.015686249 0.0019397089 0
0.015686588 0.0019369709 0
0.015686926 0.0019342329 0
0.015686926 0.001934233 0
0.015686249 0.0019397089 0
15.07525 -1.8578178 -1.1302831
14.995745 -1.8453479 -1.5012134
15.247065 -1.8763397 -1.9006597
12.58548 -1.5481235 -1.8815001
10.7172 -1.3158411 -1.8682485
9.3114338 -1.1443809 -1.8545495
8.1913013 -1.0048046 -1.8337231
7.3341317 -0.89795977 -1.8247722
6.6896653 -0.8187151 -1.8307174
6.0683923 -0.74339193 -1.8087505
5.589376 -0.68342161 -1.8062372
5.1896882 -0.63427526 -1.8061711
4.8381462 -0.58934575 -1.8020611
4.5129309 -0.55106002 -1.7930801
0.015674775 0.0020304669 0
0.015674774 0.0020304651 0
0.015674418 0.002033199 0
0.015674416 0.0020331973 0
0.015673704 0.0020386672 0
45.702267 -5.940989 11.333302
0.015674056 0.0020359287 0
0.015674056 0.0020359275 0
0.015673699 0.0020386621 0
44.679302 -5.8079195 6.6348543
0.015674409 0.0020331889 0
0.015673697 0.0020386598 0
58.772087 -7.6411448 4.3511543
0.015674051 0.0020359233 0
61.189175 -7.933857 1.4860307
0.015674761 0.0020304513 0
0.015674761 0.0020304515 0
0.015674051 0.0020359233 0
15.048708 -1.9481659 -1.1291689
14.98905 -1.937772 -1.5017083
15.226383 -1.9685186 -1.8995534
12.621824 -1.6310977 -1.8884066
10.701083 -1.3803719 -1.8668827
9.3081045 -1.2018049 -1.8553265
8.163661 -1.0520989 -1.8289427
7.3226838 -0.94200546 -1.8233309
6.6797075 -0.85893601 -1.829404
6.0655942 -0.78066641 -1.8093191
5.5926065 -0.7184878 -1.8086867
5.1800523 -0.66518772 -1.8042067
4.8334856 -0.61870861 -1.8017133
4.5158963 -0.57938194 -1.7956558
0.015662022 0.002126609 0
0.01566202 0.0021266069 0
0.015661646 0.0021293387 0
0.015661644 0.0021293371 0
0.015660899 0.0021348025 0
0.015660897 0.0021348011 0
42.131489 -5.7319202 9.4074297
0.015661268 0.0021320651 0
0.015660893 0.0021347974 0
44.5634 -6.0709405 6.6230497
42.493618 -5.7736759 5.2408481
0.015660891 0.0021347951 0
60.134193 -8.1936655 4.4556656
0.015661262 0.0021320607 0
61.151203 -8.3105812 1.4863197
0.015662005 0.0021265934 0
16.882334 -2.2882671 -0.43383178
18.030939 -2.4506404 -0.90512788
15.041387 -2.0409458 -1.1295403
14.966006 -2.0280414 -1.5006195
15.213993 -2.0617166 -1.8995534
12.608613 -1.7079214 -1.8879658
10.706057 -1.447668 -1.8692728
9.3306627 -1.2627952 -1.8613478
8.2150621 -1.1098485 -1.8419801
7.3311701 -0.98868072 -1.8269342
6.6848044 -0.90113789 -1.8322936
6.0625653 -0.81793481 -1.8098879
5.6078787 -0.75528061 -1.8151169
0.015662761 0.0021211398 0
4.8351483 -0.64891535 -1.8037999
4.518681 -0.60776126 -1.7982316
0.015648676 0.0022226707 0
0.015648674 0.0022226688 0
0.015648285 0.0022253983 0
0.015648283 0.0022253967 0
0.015647504 0.0022308575 0
42.750538 -6.0910215 10.618835
0.01564789 0.0022281236 0
0.015647888 0.0022281224 0
0.015647499 0.0022308524 0
41.783894 -5.9531951 6.2151299
41.784203 -5.9383693 5.1577234
0.015647497 0.00223085 0
0.015647495 0.0022308496 0
0.015647884 0.002228118 0
60.946609 -8.6637707 1.4826109
0.015648661 0.0022226553 0
16.885765 -2.3941507 -0.43429041
0.015647884 0.002228118 0
15.027567 -2.1328671 -1.1294661
14.950299 -2.119221 -1.5003227
15.201031 -2.1548369 -1.8995534
12.607663 -1.7864531 -1.8894352
10.712555 -1.515354 -1.8720044
9.2790089 -1.313623 -1.8526073
8.2090378 -1.1601791 -1.8421974
7.3451233 -1.0363129 -1.831979
6.6667037 -0.94018614 -1.8288785
6.0716448 -0.85694641 -1.8141531
5.60217 -0.78934991 -1.8148106
5.1779985 -0.72924805 -1.8064984
4.8329062 -0.67864126 -1.8044955
4.5222063 -0.63632733 -1.8011754
0.015634743 0.0023186491 0
0.015634742 0.0023186472 0
0.015634334 0.0023213741 0
0.015634332 0.0023213725 0
0.01563352 0.0023268284 0
39.822277 -5.9228463 9.9000683
0.015633922 0.0023240971 0
0.015633922 0.0023240957 0
0.015633514 0.0023268233 0
40.970566 -6.0937681 6.0995598
41.739098 -6.1932821 5.1567526
0.015633512 0.002326821 0
0.015633512 0.0023268205 0
58.471508 -8.6883373 2.869714
58.419121 -8.6701326 1.4223788
58.458328 -8.6655331 -0.051558767
16.879629 -2.4988425 -0.43451971
0.015633916 0.0023240915 0
15.007265 -2.2238169 -1.1289461
14.950768 -2.2127662 -1.5017083
15.176697 -2.2462745 -1.8982015
12.602308 -1.8644574 -1.8903168
10.689383 -1.5788431 -1.8696142
9.322175 -1.3779687 -1.8629017
8.218152 -1.2127666 -1.8458914
7.3395591 -1.0813123 -1.8322192
6.6665092 -0.98172987 -1.8304547
6.0747805 -0.89525753 -1.8167123
5.5971942 -0.82351726 -1.8148106
5.1892891 -0.76316494 -1.8120639
4.8193488 -0.70672154 -1.8010179
4.5246282 -0.66482365 -1.803751
0.01562022 0.0024145399 0
0.015620219 0.0024145381 0
0.015619795 0.0024172626 0
39.697895 -6.1391721 11.879127
0.015618947 0.0024227118 0
0.015618945 0.0024227104 0
0.015619366 0.0024199828 0
0.015619365 0.0024199816 0
40.088764 -6.2139854 6.975471
40.306694 -6.2477918 6.0062876
41.406982 -6.4036865 5.1204691
57.242435 -8.8749743 5.6680465
50.593849 -7.8436027 3.7586575
0.015619362 0.0024199774 0
0.015619784 0.002417251 0
0.015620205 0.0024145246 0
16.863951 -2.6021752 -0.43451971
15.462925 -2.3911061 -0.77818924
14.999222 -2.3165812 -1.1293918
14.943765 -2.3053329 -1.5024011
15.14985 -2.3371916 -1.8966037
12.593534 -1.94201 -1.8907577
10.658042 -1.6409023 -1.8658583
9.2941265 -1.4319533 -1.859017
8.214386 -1.2635734 -1.8467605
7.323164 -1.1246551 -1.8298171
6.6622386 -1.0227185 -1.8309802
6.078619 -0.93378597 -1.8195558
5.5844808 -0.85649276 -1.8123611
5.169539 -0.79249507 -1.8068258
4.8148932 -0.73608732 -1.8010179
4.5333009 -0.69436616 -1.8089025
0.01560511 0.0025103402 0
0.015605108 0.0025103383 0
0.015604667 0.0025130601 0
39.627258 -6.3772621 11.869481
39.570007 -6.3822021 10.855766
0.015603784 0.0025185025 0
0.015604223 0.0025157777 0
39.747417 -6.4037266 7.910337
40.444862 -6.5234179 7.0442967
39.324097 -6.3425078 5.8655052
0.015604658 0.0025130501 0
0.015603779 0.0025184965 0
0.015603778 0.002518496 0
0.015604218 0.0025157721 0
0.015604656 0.0025130485 0
0.015605094 0.0025103246 0
0.015605095 0.0025103248 0
0.015604218 0.0025157721 0
0.015604656 0.0025130489 0
0.015605096 0.002510326 0
0.015605096 0.0025103267 0
0.015605097 0.0025103274 0
10.659417 -1.7079523 -1.8679069
9.2618923 -1.4850229 -1.8543553
8.1794643 -1.3094239 -1.8406764
7.3323894 -1.1719918 -1.8339009
6.6615243 -1.0643039 -1.8325562
6.0916772 -0.97391671 -1.8252428
5.5903697 -0.89236122 -1.8160354
5.1710801 -0.82505643 -1.8091174
4.8139601 -0.76601851 -1.8024089
4.5243349 -0.72124034 -1.8070627
0.015589411 0.0026060457 0
34.262329 -5.7227645 11.996439
0.015588953 0.0026087628 0
39.67247 -6.6343446 11.895013
0.015588038 0.0026142013 0
39.426785 -6.6073647 9.8303175
0.015588491 0.0026114779 0
39.715088 -6.6485968 7.91188
40.470135 -6.7823534 7.0558243
39.186836 -6.567121 5.8509312
40.736847 -6.8124781 5.0475378
0.01558803 0.0026141938 0
50.532085 -8.4699268 3.7615137
0.015588486 0.0026114723 0
0.015588941 0.0026087512 0
0.015589396 0.0026060303 0
0.015589396 0.0026060303 0
0.015588486 0.0026114723 0
14.999112 -2.5050251 -1.1316203
14.929994 -2.4907842 -1.5039847
15.157165 -2.5287626 -1.9012742
12.519916 -2.0878675 -1.8834105
10.670087 -1.7767042 -1.871663
9.2419319 -1.539854 -1.8522187
8.1856861 -1.3618078 -1.8439357
7.3087521 -1.2140535 -1.8298171
6.6396103 -1.1024264 -1.8283532
6.0798821 -1.0101372 -1.8235366
5.5781856 -0.92535824 -1.813892
5.1547055 -0.85471278 -1.8051889
0.015591227 0.0025951613 0
4.5179596 -0.74849004 -1.8063267
0.015573126 0.0027016532 0
0.015573124 0.0027016513 0
33.03521 -5.7319412 10.740788
39.625317 -6.8764696 11.893311
0.015571703 0.0027098001 0
33.847298 -5.8851404 8.447485
33.944241 -5.8959131 7.6220212
39.568138 -6.8736482 7.8908577
40.392773 -7.0242715 7.0497217
39.223747 -6.8208218 5.8625903
40.351959 -7.0026684 5.0050654
44.739418 -7.7807331 4.4431257
50.373016 -8.7611675 3.7536042
50.409397 -8.75844 2.4837422
50.086308 -8.6932697 1.2242702
50.341755 -8.7285881 -0.044573959
0.015573111 0.0027016378 0
0.015572167 0.0027070739 0
15.00406 -2.6004028 -1.1331801
14.927143 -2.5843661 -1.5052713
15.156976 -2.6242406 -1.9032407
12.503913 -2.1639502 -1.8829696
10.650215 -1.8404355 -1.8701264
9.2554741 -1.6003656 -1.8568804
8.1521387 -1.4074833 -1.8382862
7.3040028 -1.2591819 -1.8305377
6.6574082 -1.147234 -1.8351833
6.0725927 -1.0470686 -1.8232523
5.5714326 -0.95921421 -1.8135859
5.1502628 -0.88629526 -1.8055162
4.7985926 -0.82369471 -1.8003224
0.015574071 0.0026962187 0
0.015556255 0.0027971587 0
0.015556253 0.0027971568 0
32.866299 -5.9103866 10.697451
0.015555762 0.0027998686 0
0.015554782 0.002805297 0
33.790447 -6.088902 8.4424686
33.900665 -6.1026773 7.6205082
34.03146 -6.1262441 6.7936516
0.015554776 0.0028052919 0
0.015554775 0.002805291 0
0.015555753 0.0027998604 0
0.015554775 0.0028052896 0
44.305744 -7.9854617 3.3049469
0.015555263 0.0028025738 0
50.085121 -9.0098019 1.2255707
0.01555624 0.0027971435 0
0.01555624 0.0027971435 0
0.015555263 0.0028025738 0
15.017233 -2.697526 -1.1354086
14.926641 -2.6785355 -1.5068549
15.150323 -2.7187581 -1.9044698
12.489393 -2.2402658 -1.8828226
10.682329 -1.9133979 -1.877809
9.2763424 -1.6624905 -1.8630959
8.1692553 -1.4619461 -1.844153
7.3199925 -1.3080702 -1.8365434
6.645462 -1.1870182 -1.8338698
6.0896111 -1.0883563 -1.8303611
5.547606 -0.98999578 -1.8077682
5.1344643 -0.9158529 -1.801915
0.015558205 0.0027862976 0
4.5120311 -0.80415034 -1.8077986
0.015538798 0.0028925592 0
0.015538796 0.0028925573 0
0.015538289 0.0028952677 0
33.079502 -6.1583567 9.9498148
0.015537275 0.0029006882 0
33.635006 -6.2740097 8.4130869
32.594627 -6.0738845 7.335042
32.850155 -6.1215467 6.5651073
40.581509 -7.5709534 7.0983744
32.610455 -6.0827212 4.8845448
40.780102 -7.5933127 5.0693808
42.180958 -7.8695784 4.1982388
50.131256 -9.3539362 3.7438633
44.113136 -8.2223635 2.1782336
0.015538278 0.002895256 0
0.015538783 0.0028925438 0
0.015538783 0.002892544 0
0.015537772 0.0028979681 0
15.020951 -2.7932646 -1.1369686
14.952935 -2.7778955 -1.5112096
15.119662 -2.8089337 -1.9027491
12.473433 -2.3163042 -1.8825288
10.640324 -1.9731315 -1.8725165
9.2505026 -1.7163143 -1.8599881
8.1591377 -1.5116749 -1.8439357
7.3394713 -1.3579117 -1.84351
6.6408648 -1.2281095 -1.8346579
6.0516796 -1.1197251 -1.8209776
5.5488806 -1.0252169 -1.8102177
5.1157079 -0.94473273 -1.7973317
0.015540814 0.0028817102 0
4.4996643 -0.83027077 -1.804855
0.015520756 0.0029878507 0
0.015520754 0.0029878488 0
0.015520231 0.0029905559 0
0.015520229 0.0029905543 0
0.015519182 0.0029959702 0
0.015519181 0.0029959688 0
32.559586 -6.2741313 7.33569
32.593235 -6.2806211 6.521327
0.015519178 0.0029959653 0
32.657967 -6.2990131 4.8973694
0.015520221 0.0029905462 0
0.015519176 0.002995963 0
0.015519175 0.0029959625 0
44.024551 -8.4855022 2.1763906
0.015520219 0.0029905443 0
24.623629 -4.7345343 -0.021868972
0.015520741 0.0029878356 0
0.015519697 0.0029932533 0
15.043642 -2.8929248 -1.1400142
14.961957 -2.8744812 -1.5138819
15.109902 -2.9029636 -1.9037324
12.481291 -2.3969064 -1.8859085
10.642495 -2.040983 -1.8750775
9.2204962 -1.7691424 -1.8561034
8.1352949 -1.5587538 -1.8406764
7.2833018 -1.3935707 -1.8314986
6.6303263 -1.268097 -1.8338698
6.0352454 -1.154835 -1.8181341
5.5377755 -1.058156 -1.8086867
5.1199865 -0.97787499 -1.8009329
4.7889643 -0.91254443 -1.8027567
0.0155218 0.0029824346 0
0.01550213 0.0030830298 0
0.015502128 0.0030830279 0
30.910997 -6.1473155 10.095908
30.637978 -6.0929656 9.2369251
31.795261 -6.3348756 8.780118
30.357597 -6.0481563 7.6109533
31.476711 -6.2656393 7.1001425
30.463911 -6.0638361 6.1024256
39.820526 -7.9353867 6.9817433
0.015500501 0.0030911337 0
32.212315 -6.4063706 4.0133963
49.163166 -9.7986269 4.9050403
42.612671 -8.4922352 3.1897433
42.899975 -8.5417538 2.1233304
0.015501576 0.0030857201 0
0.015502115 0.0030830144 0
0.015502115 0.0030830144 0
0.015501037 0.0030884258 0
15.082298 -2.9962785 -1.1443225
14.9928 -2.9757471 -1.5188305
15.094689 -2.996012 -1.9041011
12.469222 -2.4738336 -1.8863493
10.606541 -2.1014464 -1.87098
9.2017336 -1.8239638 -1.8545495
8.1466036 -1.6126366 -1.8454568
7.3174233 -1.4465495 -1.8423089
6.6252232 -1.3091292 -1.8346579
6.0242476 -1.190907 -1.8169966
5.5283408 -1.0913686 -1.8077682
5.1157069 -1.0094497 -1.8015877
4.790596 -0.94317931 -1.8055387
4.5136909 -0.88993335 -1.8147899
0.015482919 0.0031780927 0
0.015482917 0.0031780908 0
30.690762 -6.2993035 10.036394
0.01548236 0.0031807898 0
31.896616 -6.5586505 8.8190842
30.60331 -6.2924595 7.6821375
31.606911 -6.4932785 7.138392
30.615433 -6.2893906 6.1404195
0.015481242 0.0031861875 0
33.200237 -6.8269644 4.9909334
31.823307 -6.5319943 3.9698317
42.305698 -8.7010679 4.225903
42.531395 -8.7475204 3.1876192
42.850632 -8.8054371 2.1235244
0.015482349 0.0031807797 0
24.563602 -5.0359664 -0.021868972
0.015482904 0.0031780775 0
24.377897 -5.0067039 -1.2382114
15.094851 -3.0949974 -1.1466995
15.008338 -3.0744982 -1.5222945
15.070151 -3.0871871 -1.9033636
12.458615 -2.5511007 -1.8870841
10.531634 -2.1536274 -1.8600537
9.2162762 -1.8855257 -1.8597939
8.1393862 -1.6629908 -1.8461087
7.333097 -1.4962974 -1.8485547
6.6217542 -1.3505344 -1.8359714
6.0224242 -1.2288141 -1.8187027
5.5187044 -1.1245058 -1.8068496
5.1084533 -1.0404402 -1.8012602
4.7837625 -0.97217792 -1.8051909
4.5144839 -0.91872847 -1.8173656
0.015463127 0.0032730359 0
0.015463125 0.003273034 0
30.705526 -6.4987574 10.054096
30.272831 -6.4070864 9.1498356
29.363123 -6.2250543 8.1286831
30.478594 -6.4617863 7.6606388
30.634224 -6.489233 6.9274797
30.079006 -6.3715029 6.0405159
0.015461399 0.0032811204 0
33.1693 -7.0328236 4.992682
31.809778 -6.7327061 3.9732296
0.015461396 0.0032811179 0
0.015461396 0.0032811174 0
0.015461968 0.0032784184 0
23.969666 -5.0716901 0.58987021
0.015463111 0.0032730207 0
23.572653 -4.9832854 -0.61371386
23.792698 -5.0385313 -1.2100194
15.196509 -3.2129989 -1.1559106
15.097212 -3.189214 -1.5332805
15.114965 -3.1929719 -1.9114757
12.440753 -2.6268978 -1.8867902
10.513363 -2.2169983 -1.8592
9.2054539 -1.9420534 -1.8599881
8.114665 -1.7096822 -1.8428493
7.2791009 -1.5316416 -1.8372641
6.5991435 -1.387957 -1.8320309
6.0091043 -1.2643635 -1.8169966
5.5172505 -1.1593376 -1.8086867
5.102859 -1.0717708 -1.8015877
4.7877598 -1.003451 -1.8090162
4.505084 -0.94545251 -1.8158938
0.015442751 0.0033678559 0
0.015442749 0.003367854 0
28.887072 -6.2987561 9.4708652
0.015442158 0.003370546 0
29.313961 -6.402648 8.1258068
28.717497 -6.2722335 7.2273245
31.270086 -6.8246355 7.0806937
30.054644 -6.5591054 6.0436015
33.112022 -7.2330813 5.8274717
29.674143 -6.4814005 4.4722528
31.793043 -6.9330745 3.9763846
0.015440972 0.0033759275 0
0.015440972 0.0033759268 0
62.568676 -13.662245 3.1091156
0.015442148 0.003370536 0
0.015442736 0.0033678408 0
23.512291 -5.1212502 -0.61294949
23.28903 -5.0810633 -1.1859542
25.561493 -5.5728459 -1.9476882
18.851538 -4.1047487 -1.9174913
15.006814 -3.2662218 -1.900291
12.415662 -2.7010965 -1.8854676
10.513962 -2.2844226 -1.8617609
9.1818228 -1.9958023 -1.8576573
8.1325932 -1.7654859 -1.8493681
7.3131566 -1.5855865 -1.8483145
6.5980053 -1.4298749 -1.8341324
5.998383 -1.3004088 -1.8161435
5.5016212 -1.1911565 -1.805931
5.1035323 -1.1044796 -1.8042067
4.7741427 -1.0310262 -1.8062342
4.4973407 -0.97249198 -1.8151579
0.015421795 0.0034625493 0
28.43166 -6.3769655 10.062236
28.072952 -6.3015652 9.2163305
30.030924 -6.7415566 9.1010418
29.307039 -6.5896235 8.1349602
28.794954 -6.4743609 7.2567058
28.095507 -6.3117795 6.3701606
30.119095 -6.7668872 6.064817
32.888142 -7.3956747 5.7959404
29.660799 -6.6692491 4.4763336
0.015421177 0.0034652273 0
0.015419966 0.0034706097 0
0.015419965 0.0034706092 0
23.280209 -5.2288127 1.1579157
22.828716 -5.1230912 0.56328231
0.01542178 0.0034625339 0
0.01542178 0.0034625342 0
23.044949 -5.1759028 -1.175115
22.787857 -5.1139092 -1.7385828
18.802654 -4.214921 -1.9151161
0.015421782 0.0034625358 0
12.381441 -2.7731366 -1.8828226
10.50259 -2.3493495 -1.862273
9.1463919 -2.046756 -1.8529958
8.0710869 -1.8038387 -1.8378516
7.2767267 -1.6242945 -1.8415881
6.5721188 -1.466344 -1.829404
5.9790239 -1.3344817 -1.8127314
5.5034566 -1.2267841 -1.808993
5.0910859 -1.1343439 -1.8022424
4.7713456 -1.0609299 -1.8076252
4.4731011 -0.99581146 -1.8077986
27.670698 -6.3845081 10.521907
0.015400256 0.0035571102 0
29.529362 -6.819262 9.7083082
0.015399631 0.0035597947 0
29.168219 -6.7464914 8.1077623
28.985474 -6.7041788 7.3149905
28.104719 -6.4950862 6.3811817
29.058851 -6.7158308 5.859416
32.794094 -7.5860286 5.7874646
28.897371 -6.6837797 4.3671761
0.015399623 0.0035597866 0
0.015398378 0.0035651613 0
0.015398378 0.0035651608 0
22.896349 -5.2900953 1.1404067
0.015399622 0.0035597847 0
0.015400242 0.0035570969 0
21.963173 -5.0661335 -0.57411945
22.068846 -5.0986471 -1.1268852
22.286718 -5.1449609 -1.7027044
18.779303 -4.3306952 -1.9154129
5.5686331 -1.2791777 -0.70586449
12.360295 -2.8479757 -1.8822348
10.490815 -2.4142234 -1.8627852
9.1498671 -2.1064026 -1.8562977
